# .PCD v0.7 - Point Cloud Data file format
VERSION 0.7
FIELDS x y z
SIZE 4 4 4
TYPE F F F
COUNT 1 1 1
WIDTH 1309
HEIGHT 1
VIEWPOINT 0 0 0 1 0 0 0
POINTS 1309
DATA ascii
-0.040056039 0.04429229 0.041829795
-0.033164639 0.04739321 0.043713711
-0.047197063 0.03873923 0.039722227
-0.029422404 0.047676712 0.045187995
-0.044669509 0.040616062 0.04079045
-0.045159929 0.04012562 0.040651262
-0.042837828 0.040972173 0.041505236
-0.026305458 0.043831602 0.046972279
-0.042862948 0.040412962 0.041633394
-0.026349816 0.042715736 0.047071721
-0.034454647 0.040515222 0.044685356
-0.026030134 0.042034101 0.047282849
-0.042343847 0.038851481 0.042141702
-0.011059414 0.0569981 0.051157404
-0.017163817 0.04990549 0.049555626
-0.020457137 0.045924313 0.048721153
-0.024748879 0.041912112 0.047743443
-0.033270117 0.038472671 0.04567996
-0.024672074 0.041665725 0.047798868
0.027347539 0.092619091 -0.020517968
-0.08266788 0.10427183 0.026832325
-0.03510002 0.070028327 0.042503923
-0.042334512 0.15920684 -0.0042460607
-0.066419683 0.11031404 0.038489677
-0.013936327 0.10118474 0.044785202
-0.084733412 0.12743643 0.042324655
-0.089032516 0.12801759 0.036690235
-0.084790923 0.10071878 0.023701217
-0.085814789 0.096748292 0.022831002
-0.083402924 0.10229837 0.026423903
-0.082603306 0.10219257 0.027698604
-0.015595734 0.089406975 0.049799673
-0.050942279 0.08758986 -0.01969485
-0.081785828 0.1042068 -0.0014147802
-0.024234133 0.099374965 -0.023469085
-0.043960053 0.097732864 -0.019878997
-0.060081583 0.036069263 0.036186635
-0.066055819 0.17048544 -0.050450083
-0.066647999 0.12066272 -0.0080319941
-0.064379841 0.12269874 -0.0078373449
0.0052153589 0.10541385 -0.021490308
0.047849808 0.065062381 -0.00061755034
-0.072632365 0.028313061 0.003260162
-0.059920769 0.044532668 0.0012553303
-0.062679395 0.03971849 0.0034701405
-0.057652075 0.050338473 0.0069442228
-0.068549566 0.032312769 0.0050596548
-0.061768424 0.041288674 0.0085025979
-0.061714441 0.041110158 0.0090774577
-0.066795357 0.03438149 0.0071928618
-0.06390886 0.037547875 0.0096628973
-0.067091145 0.034034435 0.0073876865
-0.065907702 0.03532286 0.0084193274
-0.06140602 0.040331181 0.012430862
-0.061318189 0.040299989 0.012808322
-0.058342461 0.045188911 0.013534593
-0.05987924 0.042161461 0.01403818
-0.062403385 0.038647816 0.012960481
-0.059221584 0.042898785 0.014836463
-0.065065198 0.035831079 0.010912057
-0.06610091 0.034796134 0.010076259
-0.073899284 0.027918097 0.0086322557
-0.055411492 0.04971914 0.015715729
-0.057143636 0.046252638 0.015609727
-0.052354265 0.053817533 0.01824485
-0.069613501 0.10199676 0.037444323
-0.0016554436 0.10754886 -0.020856965
-0.048444871 0.054956436 0.035232712
-0.059893027 0.037134245 0.034607463
-0.060668811 0.036302488 0.034923919
-0.061725996 0.035411712 0.035596453
-0.049261726 0.049768716 0.036619734
-0.06059368 0.036267087 0.035475455
-0.062383335 0.034798842 0.035827536
-0.051981393 0.043579411 0.037355993
-0.063896701 0.033339527 0.036147092
-0.060965803 0.035973307 0.03575705
-0.069474079 0.027789216 0.036562502
-0.059343401 0.037060622 0.03587028
-0.060958453 0.035889383 0.035806291
-0.05776732 0.037862279 0.03630491
-0.056659125 0.038366158 0.036721278
-0.058823328 0.037151545 0.036053482
-0.062037978 0.035032041 0.035886701
-0.036085419 0.058538821 0.041390669
-0.081167296 0.10198439 0.029196177
-0.087914892 0.084067389 0.023900148
-0.080245204 0.1397533 0.037703153
-0.028726099 0.086891368 0.045583539
-0.042715322 0.15830199 -0.0042870315
-0.065823108 0.087538697 -0.016355628
-0.081291474 0.08153227 0.030520644
-0.0691218 0.028113732 0.036589701
-0.082301542 0.098992921 0.028319467
-0.045748129 0.041128617 0.040252071
-0.049106829 0.037975144 0.038864549
-0.02343555 0.060840793 0.046656959
-0.038270041 0.044220403 0.042461649
-0.0460774 0.03993094 0.040128477
-0.042858835 0.042097334 0.041292705
-0.052776601 0.031779956 0.038025405
-0.052568771 0.034503084 0.037630737
-0.028130859 0.043132033 0.046369337
-0.028082302 0.042642925 0.046483565
-0.043256849 0.040083017 0.041494098
-0.043408584 0.039565824 0.041541193
-0.027210016 0.041674145 0.046960071
-0.023114186 0.043766957 0.048065089
-0.028144842 0.041014709 0.046755906
-0.024775151 0.042050235 0.047711205
-0.021547299 0.04433617 0.048439562
-0.024547074 0.042006779 0.047772754
-0.039605267 0.037599571 0.04351953
-0.079505593 0.10061377 0.031034788
-0.070679218 0.10664665 0.037174966
-0.028601049 0.083328515 0.045937069
-0.067375831 0.11039764 0.038656838
-0.083499655 0.12925473 0.042406373
-0.033582993 0.07939288 0.044083342
-0.025451804 0.075233854 0.046999834
-0.082770325 0.12708643 0.043704931
-0.088522397 0.13068931 0.035348922
-0.033624995 0.079362899 0.044070687
-0.077430099 0.076005168 0.031879067
-0.084754623 0.067117125 0.030835018
-0.080399722 0.095655896 0.031231033
-0.070266671 0.10639784 0.037358604
-0.067213066 0.11000095 0.038536102
-0.067168869 0.11004187 0.038545251
-0.069449946 0.10694335 0.037718166
-0.075529762 0.096495979 0.034677446
-0.021033602 0.17364718 -0.015933903
-0.068507373 0.14047161 -0.0057435366
-0.07316801 0.13438283 -0.0049964692
-0.031070193 0.099768013 -0.021750933
0.019920953 0.10053001 -0.021211112
-0.074706487 0.097035266 0.035134148
-0.07617636 0.13896219 0.040524054
-0.059769019 0.043952305 0.00014518376
-0.05750848 0.051050499 0.0056224288
-0.064508088 0.036985975 0.0049362043
-0.057952862 0.049081322 0.0082895383
-0.068246663 0.032564696 0.0053453799
-0.074882485 0.026562495 0.0047234301
-0.068414189 0.032520652 0.0056769326
-0.059654534 0.044308275 0.010336732
-0.066920094 0.034161884 0.0073294514
-0.057016555 0.04916187 0.011320098
-0.062668309 0.038817268 0.01138645
-0.062224675 0.039287254 0.011904238
-0.065214351 0.035911672 0.0095475381
-0.064066038 0.03701428 0.010723559
-0.066349491 0.034652434 0.0089144865
-0.066027291 0.03495992 0.0093598217
-0.046207815 0.063674614 0.018574854
-0.063886471 0.036921013 0.011840397
-0.063043162 0.037543271 0.013193353
-0.060934573 0.039576877 0.015694596
-0.064367667 0.03610621 0.012494769
-0.067392506 0.11023583 0.038624134
-0.075431466 0.090313546 0.035049852
-0.077022254 0.087892376 0.034140535
-0.059550922 0.15058261 0.031694502
-0.053803124 0.044737898 0.035226595
-0.049464669 0.05155123 0.035543583
-0.088859744 0.13765614 0.024963532
-0.061487254 0.035556562 0.035577998
-0.060564574 0.036287993 0.035296675
-0.0602917 0.036470238 0.035441298
-0.047568254 0.053314898 0.036447573
-0.061937183 0.035133321 0.035750899
-0.048152797 0.050347161 0.037105165
-0.052514177 0.042318586 0.037471943
-0.047167871 0.051503044 0.037222099
-0.064456239 0.032759596 0.036170296
-0.061411172 0.035547514 0.035771828
-0.046115465 0.051667236 0.037728179
-0.06071284 0.036100414 0.035755552
-0.081025392 0.085850269 0.031527463
-0.072619654 0.099197224 0.036165908
-0.088515095 0.12599282 0.038804606
-0.068991169 0.15764782 -0.021031719
-0.032476205 0.076047651 0.044261932
-0.067551956 0.14093846 -0.0057999259
-0.065418243 0.086594723 0.038787205
-0.083129704 0.13545358 0.038803138
-0.060590822 0.036215656 0.035541117
-0.0069505651 0.092041805 0.050225902
-0.071671173 0.10090205 0.036632705
-0.039780349 0.045709949 0.041608743
-0.038485099 0.046112109 0.042009875
-0.044781446 0.04179332 0.040520404
-0.034992512 0.046393227 0.043178316
-0.047318865 0.039205197 0.039568927
-0.033175744 0.044756759 0.044156495
-0.045520809 0.040442199 0.040360462
-0.026980182 0.044980921 0.046536103
-0.041001759 0.04209527 0.041934982
-0.02811648 0.04312912 0.046361774
-0.032543119 0.042267524 0.044848386
-0.020057764 0.050429631 0.048667047
-0.024402371 0.043360934 0.047679745
-0.031155756 0.040810347 0.045722958
-0.028046394 0.041356143 0.046692468
-0.024631314 0.042278718 0.047701154
-0.025894171 0.041531235 0.047382757
-0.02636818 0.041299269 0.047268201
-0.016957486 0.049452096 0.049571469
-0.025019141 0.041645773 0.047637954
-0.066362686 0.11027469 0.0384732
-0.08400479 0.12559965 0.043446843
-0.077753708 0.088606156 0.033717547
-0.080777004 0.12732697 0.04420707
-0.080003753 0.13783015 0.039411955
-0.063030981 0.17498277 -0.051973339
-0.066096045 0.10324216 -0.013407193
-0.022638233 0.084285744 0.04832609
-0.033374216 0.079307579 0.04414827
-0.088330656 0.079781808 0.022346998
-0.087748729 0.091744877 0.019636292
-0.07397031 0.081697449 0.034775611
-0.068342797 0.15956278 -0.023739461
-0.06924133 0.089174546 -0.014917581
-0.081825189 0.13141653 0.042393558
-0.071147412 0.099089377 0.036863625
-0.083445549 0.10157701 0.026567325
-0.077269852 0.08869116 0.033953898
-0.072776295 0.092913263 0.036262125
-0.06631241 0.10987895 0.038440086
-0.071213722 0.093980506 0.036959797
-0.052033775 0.042505722 0.037625462
-0.04842297 0.15588266 -0.001389396
-0.082307063 0.12807736 0.043536518
-0.082757987 0.12402472 0.044376723
-0.077644922 0.12965599 0.043881927
-0.055619642 0.055035222 0.00451111
-0.063538224 0.038387284 0.0045447284
-0.065813504 0.03526511 0.0054311077
-0.063699357 0.038233258 0.0066799647
-0.057727404 0.049078196 0.0091764834
-0.059637971 0.044531584 0.0098836971
-0.064460099 0.037008122 0.0082478914
-0.054811541 0.054575417 0.0092014913
-0.055509157 0.052739371 0.009890615
-0.056979675 0.049166299 0.011450017
-0.058093507 0.046255104 0.012566661
-0.062358502 0.039066836 0.01168588
-0.060593594 0.041288331 0.013044926
-0.059623383 0.042772766 0.013534606
-0.064236872 0.036756985 0.010841254
-0.070585392 0.03061335 0.0059251837
-0.062796891 0.037871368 0.013075359
-0.066423431 0.034515355 0.0090525402
-0.057062007 0.047036797 0.014550983
-0.056778371 0.047525026 0.014824345
-0.066729546 0.16439681 -0.030711481
-0.067866251 0.087108523 0.038084008
-0.066182539 0.10948887 0.038379677
-0.071466334 0.092678979 0.036834769
-0.088692404 0.080502756 0.022094857
-0.086892709 0.09463346 0.020227455
-0.062349804 0.06894315 0.035018869
-0.023948144 0.080988921 0.047876496
-0.066639297 0.16440074 -0.030467514
-0.088836849 0.080228396 0.021707408
-0.048559006 0.050712153 0.036727667
-0.061204955 0.035745125 0.035673756
-0.048529625 0.049597185 0.037097577
-0.050874233 0.044142205 0.037721455
-0.05008385 0.04510428 0.037761819
-0.055917166 0.0392363 0.036752589
-0.061227269 0.035722382 0.035660531
-0.059761576 0.036624964 0.035768606
-0.055799935 0.038915932 0.036936674
-0.078904368 0.091469578 0.032814503
-0.078028642 0.09082146 0.033358332
-0.075358957 0.094230823 0.034865804
-0.079728417 0.098195486 0.031046988
-0.076093636 0.14899167 -0.031328022
-0.080443218 0.14340083 -0.030673731
-0.028521756 0.09563899 -0.023626911
-0.073405698 0.14454465 0.03776611
-0.070202142 0.10485842 0.037325926
-0.023788009 0.098208025 -0.024109364
-0.078790888 0.098551407 0.031908825
-0.093231775 0.12742114 0.023756856
-0.035405558 0.048245333 0.042678792
-0.039852701 0.045566909 0.041609202
-0.024948625 0.060559757 0.045952499
-0.034004427 0.046942886 0.043435123
-0.042915627 0.042607956 0.041150708
-0.031466097 0.045316581 0.044713397
-0.028150482 0.04506693 0.046036884
-0.03693727 0.043365467 0.0430829
-0.029494558 0.04361777 0.045755472
-0.027215103 0.043348253 0.046639197
-0.046531241 0.038662203 0.040001947
-0.02806456 0.042131644 0.046540722
-0.054127641 0.031129258 0.038615584
-0.026049476 0.042035766 0.047235027
-0.087634459 0.081190035 0.024361426
-0.072435372 0.092431776 0.036415681
-0.085010007 0.11802717 0.044288833
-0.023358371 0.088257439 0.047473408
-0.043403435 0.087655775 -0.02096956
-0.035958 0.069038294 0.042045698
-0.043270979 0.1585661 -0.0039558327
-0.072063915 0.1436439 0.03883262
-0.083400995 0.12126208 0.044558506
-0.085510589 0.11890545 0.043940332
-0.012789551 0.088965029 0.050639141
-0.074660592 0.096809767 0.035144828
-0.042020813 0.15884359 -0.0045266734
-0.012060765 0.10648773 0.042338058
-0.074830472 0.097574241 0.03503092
-0.072566025 0.072462261 0.032145754
-0.091949329 0.11271375 0.041254446
-0.086883351 0.065680623 0.031281509
-0.017950056 0.10007821 0.044438235
-0.065880679 0.10977501 0.038378891
-0.08210171 0.10428128 0.027853355
-0.083376013 0.1209504 0.044555824
-0.066930801 0.081744581 0.037610333
-0.075287379 0.14483814 0.03632034
-0.070022427 0.14996479 -0.0071097375
-0.075748123 0.14287101 0.03800083
-0.067851894 0.11663295 -0.0086939875
-0.078244425 0.083922923 0.032828409
-0.07232412 0.089016512 0.036413312
-0.095118642 0.11044391 0.039771441
-0.033501025 0.08055044 0.044137623
-0.02324336 0.094675742 0.045363262
-0.031529717 0.087113798 0.044585153
-0.073731735 0.14407261 0.038044691
-0.068895191 0.031701561 0.0042871893
-0.052768707 0.059459839 0.0066975611
-0.071461998 0.029525707 0.0044078841
-0.05778373 0.04841828 0.0098648034
-0.057705551 0.048086807 0.010758972
-0.059446603 0.044565037 0.010676697
-0.056390051 0.050702885 0.010661891
-0.058411911 0.045793179 0.012337276
-0.058527894 0.045409385 0.012626376
-0.058014408 0.046293199 0.012710856
-0.050711919 0.05860142 0.012625252
-0.060558494 0.041158315 0.013418498
-0.063259147 0.037770975 0.01162814
-0.048058756 0.061917953 0.015672974
-0.060431711 0.040825166 0.014655582
-0.060341775 0.040802415 0.015007921
-0.059191342 0.042597488 0.015464716
-0.059775449 0.041394632 0.01573069
0.026486853 0.088492274 -0.021945303
-0.022976965 0.065520957 0.047074582
-0.087423705 0.11782003 0.042877089
-0.034839474 0.080431275 0.043736178
-0.075082898 0.086090021 0.034865662
-0.024746764 0.097741067 -0.02403295
-0.068217836 0.16730405 -0.042482749
-0.085730523 0.11953228 0.043712232
-0.086357705 0.11825225 0.043513022
-0.063553914 0.090440266 0.039234791
-0.097036079 0.10818172 0.040686339
-0.06029347 0.036375038 0.035439689
-0.061180908 0.03574672 0.035654865
-0.054109108 0.041210875 0.037078556
-0.060923543 0.035883728 0.035696365
-0.048019718 0.048366666 0.037750166
-0.046321765 0.052451573 0.037428249
-0.04774835 0.048348658 0.03788913
-0.08049991 0.12693463 0.044334169
-0.067655675 0.11032252 0.038590133
-0.030393599 0.078948915 0.0452739
-0.081130899 0.082660414 0.030412551
-0.078738406 0.084474847 0.032596346
-0.074378327 0.15238985 -0.033045039
-0.041773457 0.08797162 -0.021319591
-0.080170527 0.12703361 0.044337504
-0.064692758 0.17279364 -0.051072016
-0.084796265 0.14028676 0.030932685
-0.070217036 0.13544624 -0.0056582033
-0.078627281 0.088413909 0.032923207
-0.048070095 0.039533101 0.039270431
-0.060116392 0.035709869 0.03631879
-0.045331448 0.042016152 0.040286563
-0.024488341 0.060754489 0.046173997
-0.024961548 0.058140218 0.046051085
-0.027807031 0.053145502 0.045219351
-0.031713087 0.045106255 0.044642575
-0.029632589 0.044586651 0.045529816
-0.021993635 0.05239968 0.047803484
-0.02594067 0.04472689 0.046963837
-0.025335938 0.04401752 0.047285184
-0.037015274 0.042018928 0.043370657
-0.019967955 0.089957468 0.048247237
-0.087600328 0.1216497 0.041738451
-0.063573286 0.088060744 0.039321087
-0.068112917 0.11090767 0.038752187
-0.033884976 0.079283513 0.04397947
-0.081987955 0.13063912 0.042653475
-0.078552477 0.091699861 0.032897826
-0.074976273 0.14286138 0.038436327
-0.082548909 0.13021725 0.042476568
-0.064630114 0.12210196 -0.0080087194
-0.087061927 0.12424946 0.041280247
-0.028900374 0.088530965 0.045302108
-0.08495225 0.11979982 0.044023931
-0.032730404 0.07845097 0.044335183
-0.082964323 0.10271596 0.027015626
-0.073129788 0.090370841 0.036079504
-0.089372829 0.080852889 0.021590935
-0.081332169 0.1260003 0.044324163
-0.027225569 0.090483919 0.045490406
-0.028184919 0.082594596 0.046145733
-0.078822657 0.085726582 0.032725271
-0.0086473674 0.10571198 0.04316318
-0.079714179 0.13779716 0.039594825
-0.07295201 0.14546947 0.03675504
-0.082967922 0.13789576 0.036709107
-0.068142399 0.10924887 0.038367413
-0.07556165 0.1443754 0.036603626
-0.07290291 0.14563191 0.03658228
-0.059228349 0.15051641 0.031663027
-0.033727523 0.05967956 0.042203192
-0.069537252 0.15636271 -0.019780234
-0.083473392 0.10234169 0.026366184
-0.0090967016 0.10648485 0.042680632
-0.02840161 0.088501707 0.04546237
-0.066913024 0.089734323 0.038489323
-0.06589473 0.035199843 0.0063055609
-0.067618288 0.033154 0.0055019027
-0.05736826 0.049513951 0.0095580211
-0.065869205 0.035214212 0.0073682736
-0.067912646 0.032887377 0.0058892169
-0.059189823 0.044576276 0.011570183
-0.058355462 0.04590068 0.012321721
-0.066380091 0.03462477 0.0078937486
-0.066913165 0.034049358 0.0074752141
-0.064231373 0.036862157 0.010001182
-0.060539935 0.04127403 0.01323259
-0.048963029 0.061017998 0.01440418
-0.060402956 0.041051835 0.014183195
-0.056000914 0.049922425 0.013201849
-0.060598236 0.040484138 0.014782977
-0.05830133 0.044636086 0.014585584
-0.083855256 0.10212827 0.025641251
-0.089847907 0.079915702 0.019701269
-0.081541248 0.12333476 0.04464113
0.017307656 0.11249205 -0.015562086
0.001986017 0.10923453 0.041664891
-0.073948994 0.14568055 0.036033116
-0.033205863 0.075830504 0.043953214
-0.044217903 0.15777007 -0.0037152541
-0.089342326 0.13212359 0.0322235
-0.091935083 0.12960905 0.027389646
-0.012654541 0.085053302 0.051569119
-0.061837617 0.035201151 0.035681788
-0.048233908 0.05122216 0.03672808
-0.058547728 0.037613373 0.035801467
-0.04738326 0.052314632 0.03683475
-0.060391001 0.036289494 0.035488531
-0.060227025 0.036334332 0.035520956
-0.073495343 0.12664765 0.043934595
-0.06824518 0.083550923 0.037512679
-0.084389329 0.082720369 0.028144408
-0.012670752 0.088559903 0.05079174
-0.0090169711 0.10501586 0.043514322
-0.080542102 0.12847351 0.043907393
-0.076392479 0.14197703 -0.0019572477
-0.079467118 0.13513431 0.041378006
-0.028891549 0.075075775 0.045578737
-0.087377496 0.079706945 0.025264081
-0.078831866 0.083841406 -0.0092284894
-0.038029101 0.091708332 -0.021890363
-0.072246291 0.13277332 -0.0054075108
-0.033238459 0.052696042 0.04295525
-0.029902989 0.056367856 0.043960348
-0.033591215 0.050846785 0.043063335
-0.034094382 0.049231339 0.043094877
-0.03508779 0.0475071 0.042943116
-0.036442474 0.046244118 0.042698201
-0.036913555 0.045097049 0.042733751
-0.034964323 0.044896521 0.04347913
-0.04348344 0.04203913 0.04103535
-0.046093166 0.04004664 0.040072802
-0.045194101 0.040498655 0.040534489
-0.028908215 0.042827211 0.046106491
-0.083314858 0.12147212 0.044467483
-0.082429938 0.087556504 0.030090783
-0.034798533 0.082143471 0.043804258
-0.083575226 0.13593532 0.037771959
-0.073383145 0.14470708 0.037466012
-0.081297174 0.13615853 0.039648145
-0.082135201 0.13124761 0.042158697
-0.080360286 0.095783539 0.031093339
-0.073435076 0.088239267 0.035851579
-0.081870802 0.12861361 0.043465562
-0.072580367 0.096754313 0.036207806
-0.023331 0.093538553 0.045802653
-0.073723488 0.1427834 0.038902637
-0.066736668 0.16432802 -0.030646231
-0.077058412 0.096255042 0.033583835
-0.079246461 0.13827035 -0.00087773957
-0.065489501 0.08853934 0.038869832
-0.080673739 0.12716396 0.044191748
-0.086251348 0.14217143 0.023137746
-0.024952976 0.08924555 0.046618167
-0.08412493 0.083651222 0.028352657
-0.077901565 0.090287797 0.033361346
-0.070202768 0.087628491 0.037216291
-0.092411056 0.11167662 0.040919479
-0.069650516 0.15525417 -0.017370326
-0.074068859 0.14416668 0.03766758
-0.081094645 0.082559861 0.030516803
-0.074993953 0.14360021 0.037678026
-0.086891428 0.12903821 0.038890794
-0.082263894 0.1268338 0.04385484
-0.073048554 0.15615076 -0.030713243
-0.005562094 0.10635011 0.0430227
-0.071960106 0.10607447 0.036517795
-0.084674701 0.13992184 0.031704426
-0.061951112 0.099240519 -0.016000863
-0.020189544 0.088155925 0.048660487
-0.083861068 0.10300092 0.0254998
-0.086980358 0.081527881 0.025018442
-0.064421326 0.03696423 0.0083169574
-0.05503802 0.053770311 0.0096716257
-0.061389688 0.040572029 0.011411415
-0.068238854 0.03255995 0.0058406689
-0.06498614 0.036092117 0.0089658694
-0.058588605 0.045024566 0.01313744
-0.060051315 0.042142812 0.013153497
-0.057291951 0.047345854 0.013107345
-0.064429931 0.036442261 0.010484315
-0.052355669 0.056621164 0.012325724
-0.05993782 0.041571066 0.01478296
-0.058548309 0.044293065 0.014457402
-0.063936882 0.036662627 0.012010192
-0.0070080692 0.089404084 0.051239468
-0.082067154 0.12380131 0.044509262
-0.079983361 0.088373721 0.031973328
-0.020866008 0.094965793 0.045952324
-0.037112221 0.16149017 -0.0067956699
-0.025236217 0.067237169 0.046193004
-0.082036003 0.14075848 0.034512222
-0.066159032 0.15907976 -0.018012941
-0.080922388 0.14611395 0.026358273
-0.047124241 0.053695451 0.036565389
-0.061823133 0.035194416 0.035668768
-0.048093811 0.051045753 0.036849648
-0.072006784 0.14906032 -0.00037125856
-0.033656262 0.06903635 0.042945411
-0.014431802 0.090745598 0.049571849
-0.079829857 0.10101052 0.030595262
-0.088077366 0.12417262 0.040065311
-0.0326619 0.080888078 0.044430811
-0.082787693 0.1008067 0.027361454
-0.085595347 0.11452645 0.0015391286
-0.073988251 0.0821082 0.034689087
-0.070660129 0.093323022 0.037122648
-0.086448111 0.079927087 0.025733206
-0.015001292 0.17853862 -0.019040164
-0.019972589 0.08900094 0.048520863
-0.090720206 0.13171792 0.028863676
-0.082603663 0.1299473 0.042471655
-0.026235815 0.064681992 0.045508184
-0.044841692 0.043060649 0.040278934
-0.036229864 0.04864249 0.042340979
-0.032086186 0.053069007 0.043399125
-0.028082555 0.05737802 0.04468954
-0.039644621 0.045028921 0.041798931
-0.022033518 0.061994392 0.047237374
-0.045230981 0.041280184 0.040429201
-0.028972968 0.048815258 0.045207087
-0.026225589 0.049265929 0.046334453
-0.046989165 0.03906285 0.039701283
-0.031179683 0.043146212 0.04520328
-0.070292085 0.15325782 -0.014486727
-0.015258346 0.088517286 0.050170999
-0.079102553 0.081266388 0.031600595
-0.090121292 0.13517898 0.02506266
-0.085075788 0.14369822 0.022306407
-0.093673103 0.11196618 0.039304446
-0.082434148 0.12068682 0.044635598
-0.080900922 0.08673057 0.031209223
-0.078376941 0.087334462 0.033073772
-0.065922149 0.16586523 -0.031282499
-0.089855358 0.11477491 0.041897625
-0.04384562 0.1580755 -0.0038104421
-0.08261399 0.12608233 0.043890528
-0.013031567 0.094018482 0.048435189
0.0051379302 0.10936911 0.041564874
-0.07966505 0.07231427 0.02920012
-0.034956917 0.082330659 0.043762058
-0.021931451 0.089705728 0.047618337
-0.085455254 0.11767459 0.043964807
-0.085301578 0.11958155 0.043693025
-0.07765124 0.088579394 0.033527777
-0.079614826 0.12613645 0.044512738
-0.070971295 0.15825769 -0.029231302
-0.079954855 0.12533189 0.044612974
-0.01898776 0.099173419 0.044579629
-0.051062118 0.15382487 -0.0025879142
-0.072637953 0.12726074 0.043662533
-0.090983227 0.11842006 0.038968444
-0.076341361 0.14326984 0.037149992
-0.06930203 0.10347553 0.037600476
-0.067149453 0.16525629 -0.034586262
-0.066910081 0.16611452 -0.035606246
-0.022906424 0.090920448 0.046900779
-0.015464229 0.097488329 0.04624147
-0.047953885 0.15534882 -0.0030567995
-0.034325682 0.079499811 0.043833535
-0.075132668 0.14431138 0.036895268
-0.034031134 0.076992974 0.043749433
-0.014812619 0.088839628 0.050159723
-0.084337786 0.10273071 0.024490446
-0.074188612 0.090864949 0.035519112
-0.052496802 0.059161339 0.0077695376
-0.060430959 0.042473111 0.010600784
-0.057661235 0.047828998 0.011351829
-0.057643116 0.047603041 0.011852855
-0.057016019 0.048860919 0.011800874
-0.052101102 0.057382215 0.011864526
-0.05860848 0.044949107 0.013235386
-0.050743751 0.058777776 0.012910471
-0.05704001 0.0479028 0.013122598
-0.064466111 0.036405016 0.010753885
-0.054391522 0.053326629 0.012759255
-0.059215661 0.04278104 0.015083283
-0.057077214 0.047012981 0.014549591
-0.073423788 0.093920238 0.035798416
-0.025504211 0.087172277 0.04677099
-0.067063615 0.16205834 -0.026067093
-0.034188878 0.080550335 0.043910969
-0.081289783 0.12958986 0.043323714
-0.064922452 0.17242469 -0.050911024
-0.084416643 0.1020045 0.02448337
-0.058755372 0.087858506 0.04019006
-0.088314965 0.1211393 0.040754173
-0.08821959 0.11548007 0.042712945
-0.081645004 0.13466868 0.040339589
-0.025483141 0.099704981 -0.023046739
-0.075548321 0.14551267 0.035097983
-0.082020231 0.1287704 0.043292373
-0.066807605 0.1635024 -0.029133238
-0.013509488 0.092367016 0.04905415
-0.088082679 0.081330031 0.023109687
-0.086754054 0.14164639 0.022702569
-0.079607196 0.12062775 0.044679921
-0.081300616 0.14086401 0.035194304
-0.064677708 0.088246569 0.039063606
-0.087612994 0.077850439 0.023409329
-0.073220983 0.15493298 -0.04292443
-0.033867083 0.081186831 0.04402725
-0.089271858 0.1370337 0.024338849
-0.075679012 0.14771609 0.031370383
-0.081338353 0.10009205 0.029360218
-0.077814467 0.084367774 0.032885525
-0.040152103 0.046718713 0.041309785
-0.026063524 0.061400425 0.045424391
-0.045821901 0.042016543 0.040093657
-0.035278842 0.048377123 0.042738367
-0.025057565 0.061034076 0.045897879
-0.033597302 0.048101734 0.043451339
-0.031295635 0.049711984 0.044148151
-0.023943271 0.057173546 0.046605896
-0.04181581 0.043264762 0.041399159
-0.030217422 0.04423793 0.045380741
-0.024419358 0.049069736 0.047127817
0.0051513715 0.11346509 0.038876284
-0.083717637 0.14045511 0.032443628
-0.084956922 0.14039038 0.030214731
-0.069371201 0.15486322 -0.015540148
-0.085837111 0.14273411 0.022805866
-0.084329411 0.067445375 0.030702874
-0.058700081 0.15772463 -0.0098739322
-0.074111909 0.14520508 0.036449291
-0.071481854 0.090503491 0.036763914
-0.083892703 0.10198409 0.025718873
-0.033920053 0.083150692 0.04403992
-0.083737731 0.12030031 0.04435702
-0.082022786 0.12774324 0.043627765
-0.0081787435 0.095029444 0.048712764
-0.067385592 0.15869583 -0.019309733
-0.088313214 0.11914597 0.041541137
-0.03426395 0.072253577 0.043087713
-0.081591167 0.11895555 0.044608567
-0.073229618 0.092655458 0.035970967
-0.083389968 0.11974526 0.044471473
-0.078456096 0.083486833 0.032336142
-0.035118002 0.079145476 0.043574888
-0.079092145 0.13905026 0.038949333
-0.082766257 0.13855645 0.036077406
-0.0043516723 0.10675079 -0.021383466
-0.01814572 0.10285673 0.043062378
-0.080802113 0.097962067 0.030039908
-0.020152364 0.090936132 0.047830336
-0.073439524 0.15605457 -0.03233492
-0.074263409 0.097916134 0.035278749
-0.032737434 0.084921703 0.044311073
-0.085336052 0.11726733 0.043976009
-0.080660239 0.13533829 0.040514417
-0.016501205 0.10424465 0.042729352
-0.031917866 0.083417512 0.044631235
-0.083643593 0.10021038 0.025879085
-0.027696051 0.071710326 0.045612685
-0.052129027 0.15399913 -0.0022349448
-0.083557546 0.12375407 0.043890812
-0.083027773 0.13563363 0.03846693
-0.073750585 0.085672066 0.035424482
-0.068145871 0.093166105 0.0380015
-0.07639011 0.091148473 0.034337815
-0.056187309 0.052129254 0.0091146305
-0.06427408 0.037086315 0.008191539
-0.06025951 0.042645194 0.010965304
-0.053676594 0.056487694 0.0095418263
-0.064278081 0.036878835 0.0094869835
-0.062074684 0.039366808 0.01192574
-0.057246193 0.047831547 0.012645202
-0.06648574 0.03440379 0.0081025604
-0.058040068 0.045749296 0.013602781
-0.058336392 0.045052841 0.013879537
-0.054729383 0.052731957 0.01278364
-0.055755649 0.050360803 0.013442499
-0.043899376 0.15642421 -0.0039370339
-0.051324982 0.090299122 -0.019515768
-0.081768364 0.14063428 -0.022868371
-0.044439748 0.052540831 0.038319949
-0.020412659 0.089824975 0.04808639
-0.078153268 0.096666433 0.032574449
-0.079607919 0.12543671 0.04456136
-0.065553881 0.060600128 0.024971543
-0.026821056 0.069255054 0.045685608
-0.076756217 0.090431914 0.03408977
-0.052429337 0.15140998 -0.0036171898
-0.05184086 0.044960968 0.036770709
-0.043123662 0.057084076 0.038309276
-0.058412217 0.037724536 0.035689522
-0.038393438 0.058339484 0.040446706
-0.028795868 0.089482218 0.04512392
-0.073606208 0.14463243 0.037378885
-0.013120706 0.090132065 0.050091732
-0.048133288 0.15539595 -0.0026458676
-0.03552267 0.088216066 -0.023132214
-0.094295181 0.11061222 0.040147249
-0.064570203 0.12550761 -0.0071557313
-0.079683036 0.12848443 0.043973632
-0.027863758 0.09027338 0.045293488
-0.065087214 0.087854639 0.038936276
-0.081831045 0.10131675 0.02853616
-0.072184324 0.092336923 0.036459688
-0.046393096 0.064829633 0.026747471
-0.04250994 0.045122575 0.040783521
-0.038900491 0.047601324 0.041583035
-0.027743399 0.059597772 0.044737227
-0.048157897 0.039604135 0.039214
-0.027433638 0.059248298 0.044902842
-0.038865868 0.046087127 0.041881692
-0.023923485 0.061281834 0.04644341
-0.023748966 0.060198262 0.046522617
-0.022589276 0.060781438 0.047044713
-0.030374227 0.045417573 0.04512836
-0.046036556 0.066447623 0.027734498
-0.072892755 0.15460816 -0.032703049
-0.085022204 0.13818021 0.03327154
-0.073968455 0.085715108 0.035293516
-0.088678956 0.080126002 0.021312514
-0.083184108 0.11869749 0.044523165
-0.071105145 0.085966446 0.036610946
-0.081674471 0.085806288 0.030370764
-0.074423686 0.093842842 0.035296753
-0.063510083 0.14958434 -0.00470821
-0.076045826 0.098527133 0.034073066
-0.03060839 0.085731208 0.044951759
-0.082589723 0.12363595 0.044276707
-0.083505884 0.12212215 0.044125836
-0.084657401 0.13981411 0.031719357
-0.085706562 0.11838831 0.043590125
-0.011608792 0.09242925 0.04938966
-0.016591223 0.10119225 0.04419234
-0.082282573 0.11846721 0.044573486
-0.090585031 0.1262757 0.034465849
-0.079781801 0.12682189 0.044319812
-0.075959943 0.085772231 0.034204476
-0.033339307 0.080594465 0.044154018
-0.074960075 0.14353174 0.037694786
-0.082798347 0.13888071 0.035657167
-0.081872426 0.1287069 0.043307822
-0.085588537 0.12082183 0.043210145
-0.079775751 0.13149035 0.042909671
-0.084663145 0.090981193 0.026350413
-0.070468396 0.15923083 -0.03001775
-0.014580873 0.089269504 0.050058536
-0.014069217 0.088634312 0.050406635
-0.015131338 0.10095339 0.044612538
-0.069822215 0.16370146 -0.037533604
-0.081950448 0.098174848 0.028714929
-0.082899943 0.099744856 0.027195688
-0.068866357 0.1573641 -0.020057241
-0.080343343 0.12207814 0.044708438
-0.083253354 0.13161312 0.040913206
-0.038715258 0.078419775 0.042521004
-0.074289441 0.087948553 0.035333145
-0.068534829 0.098597549 0.037745953
-0.044666585 0.15693112 -0.0036732655
-0.040434375 0.068136699 0.040134542
-0.064492747 0.036799144 0.0076742866
-0.054716259 0.055190232 0.0089675933
-0.056986243 0.049588114 0.010855567
-0.054628659 0.054958407 0.0097328434
-0.059938118 0.042616822 0.012542587
-0.053674143 0.055793915 0.010871127
-0.05731735 0.047725014 0.012682782
-0.052485928 0.056767512 0.012144152
-0.052512512 0.056753967 0.012134312
-0.057851482 0.045962539 0.013894069
-0.053193443 0.055308755 0.013037557
-0.069919616 0.15498711 -0.017398573
-0.084346503 0.10132477 0.024369927
-0.081483729 0.13049987 0.042763125
-0.080487326 0.12962334 0.043419685
-0.088561848 0.081429951 0.020930843
-0.009718677 0.10893845 -0.020081857
-0.086756207 0.083011523 0.023913087
-0.079944015 0.099132828 0.030618442
-0.069528952 0.088997208 0.03748269
-0.069393374 0.08867646 0.037517264
-0.058736034 0.037988469 0.034879334
-0.04778434 0.053297427 0.036282752
-0.047740057 0.052828483 0.036446027
-0.046397597 0.05366192 0.0370095
-0.048078489 0.051000677 0.03686545
-0.0084908372 0.10618035 0.042904656
-0.029564951 0.087162189 0.045199279
-0.024113584 0.090543427 0.046560854
-0.01394068 0.095746584 0.047392216
-0.032201774 0.083184943 0.044545665
-0.082976721 0.079814136 0.027901413
-0.06375993 0.10123619 -0.014946033
-0.081062376 0.1204115 0.044703871
-0.075385742 0.14424779 0.03673669
-0.081346661 0.13178384 0.042186327
-0.084653497 0.1239479 0.042960551
-0.066400915 0.10948917 0.038405254
-0.010239006 0.098323807 0.046868518
-0.012836715 0.092252009 0.049223341
-0.034509737 0.052287802 0.042541515
-0.038059499 0.047978811 0.041827533
-0.035508238 0.049450308 0.042554658
-0.028266003 0.058733303 0.044558633
-0.036614317 0.047376633 0.042421427
-0.022169525 0.064449191 0.047230951
-0.021501416 0.064026326 0.047512442
-0.075920783 0.10088459 0.033966266
-0.051699076 0.15365405 -0.0016197575
-0.077739313 0.090438105 0.033362739
-0.079703599 0.14195375 0.03547284
-0.088802569 0.13470177 0.030041482
-0.088005438 0.13728432 0.02809084
-0.086436525 0.14166948 0.02360124
-0.080485702 0.1037192 0.029551387
-0.043802276 0.086945914 -0.020888375
-0.033474043 0.083594069 0.044145446
-0.077596232 0.13912171 0.03965212
-0.080980077 0.13130547 0.042625036
-0.06733764 0.15871812 -0.019504588
-0.016215768 0.089793123 0.049407214
-0.087584801 0.083335496 0.023173526
-0.082355656 0.12464725 0.044127963
-0.090771578 0.11517057 0.040572293
-0.075273529 0.088582657 0.034780931
-0.079455197 0.13555846 -0.0017817974
-0.08110413 0.12830009 0.043683447
-0.023581838 0.090756461 0.046680514
-0.072089866 0.10076108 0.036446895
-0.063784726 0.10884397 0.038320865
-0.075939581 0.086678021 0.034287717
-0.073784232 0.092160784 0.035663713
-0.081462942 0.13631864 0.039187118
-0.082227774 0.13322689 0.040723804
-0.070170648 0.16059245 -0.041189522
-0.087804228 0.13880433 0.0259385
-0.076675683 0.1004113 0.033363491
-0.076305844 0.14334804 0.0369801
-0.066540688 0.16551585 -0.033209939
-0.022106031 0.17393008 -0.015390524
-0.07062272 0.095583238 0.037081517
-0.067225106 0.11010434 0.038589686
-0.078034557 0.084997438 0.032826561
-0.070258357 0.15166293 0.026921257
-0.074482501 0.14426702 0.037230805
-0.083104409 0.13193984 0.040754367
-0.067836508 0.16814823 -0.046488471
-0.072119631 0.1500449 -0.012137318
-0.081346184 0.12925296 0.043279745
-0.087007031 0.077901818 0.024263246
-0.031180771 0.081755601 0.044961661
-0.0098915547 0.091490366 0.050080966
-0.035752889 0.16152416 -0.0075597768
-0.085419372 0.069312938 0.029202584
-0.082154028 0.12596475 0.043959569
-0.081842333 0.12853615 0.04330828
-0.05643313 0.051458284 0.0097528733
-0.052037049 0.059344973 0.0091664381
-0.053204022 0.057468753 0.0093929507
-0.051860385 0.058741454 0.011242599
-0.056823019 0.049371574 0.011772987
-0.051788405 0.058201756 0.012049298
-0.055355579 0.052549776 0.011478207
-0.058443703 0.045048285 0.013565324
-0.064535908 0.036291264 0.010476747
-0.05257063 0.056738485 0.012250607
-0.055240724 0.051718213 0.013332916
-0.084084369 0.13984518 0.032529652
-0.011243832 0.089995369 0.050490864
-0.084399067 0.13769974 0.034632094
-0.080706708 0.083560847 0.030717282
-0.022586944 0.17270629 -0.015092964
-0.081765085 0.12508266 0.044206601
-0.068231516 0.086316876 0.03780026
-0.070185408 0.084484234 0.036754381
-0.068379223 0.086913787 0.037791241
-0.047995914 0.054197088 0.035795931
-0.035986833 0.067812957 0.041864756
-0.047882352 0.052865546 0.036370717
-0.046452224 0.054174475 0.036815401
-0.037117939 0.061545677 0.040948931
-0.049198262 0.047726344 0.037337102
-0.048313152 0.048682615 0.037458662
-0.085372895 0.12529218 0.041944265
-0.033953272 0.073676594 0.043383256
-0.05056645 0.043023944 0.038109023
-0.082355201 0.13451326 0.039700422
-0.083280705 0.12243565 0.044117328
-0.04525787 0.08647532 -0.020587685
-0.093710616 0.11102257 0.040069573
-0.081397794 0.12540773 0.04423409
-0.093774654 0.11143965 0.039579142
-0.073591083 0.14325739 0.038544174
-0.074118592 0.14267446 0.038753722
-0.075094685 0.14551878 0.035366565
-0.024046574 0.064362682 0.046415105
-0.024150103 0.063728929 0.046359621
-0.034173649 0.051843487 0.042741165
-0.029490622 0.057054192 0.044147003
-0.024876747 0.062482432 0.046010237
-0.035673238 0.047672614 0.042721041
-0.074095584 0.15608762 -0.034236182
-0.069731615 0.091986485 0.03742497
-0.06954211 0.10324024 0.037501786
-0.018016646 0.089768425 0.048857771
-0.077295855 0.10988595 0.031194847
-0.084065221 0.081349395 0.027320597
-0.033765309 0.076923929 0.043817613
-0.081750743 0.14034212 0.035103638
-0.095409751 0.10929064 0.040198665
-0.011438503 0.092703678 0.049290229
-0.083410986 0.10230989 0.026457084
-0.033231676 0.084696122 0.044175465
-0.020890387 0.087196968 0.048514143
-0.090465523 0.11297227 0.041528713
-0.082181714 0.12142682 0.044539489
-0.06804014 0.089910515 0.038037732
-0.088007919 0.080565438 0.023081636
-0.077499785 0.10125306 0.03264064
-0.084889524 0.074994415 0.028136447
-0.04682108 0.041189667 0.039791841
-0.081164822 0.13023579 0.042901885
-0.083356537 0.067258887 0.030204721
-0.081954964 0.12899792 0.043019734
-0.080998868 0.13070817 0.04278047
-0.079240248 0.13045344 0.043304142
-0.06478487 0.11328767 -0.010738214
0.00057719013 0.07877633 -0.033292077
-0.082370892 0.13966995 0.035159379
-0.083067618 0.074614577 0.028126292
-0.067442894 0.16666472 -0.038670313
-0.085616693 0.14219928 0.024645925
-0.035282791 0.06723956 0.04212762
-0.023854995 0.085235372 -0.030723892
-0.041070178 0.15951975 -0.0048840293
-0.073227055 0.15537329 -0.030246347
-0.082550116 0.099786676 0.027920926
-0.095928356 0.11559508 0.021786833
-0.073061816 0.094056696 0.035943657
-0.08913359 0.13783588 0.022557169
-0.073882475 0.14317021 0.038519952
-0.072042629 0.093430169 0.036464296
-0.037421566 0.076352231 0.042525053
-0.0684992 0.16725038 -0.046780817
-0.016773367 0.096002251 0.046542294
-0.023731714 0.094840333 0.045079719
-0.0096552456 0.0934797 0.049238507
-0.037098713 0.075100958 0.042436734
-0.075682476 0.098521985 0.034330953
-0.073631532 0.13703823 0.041376799
-0.077641837 0.092593677 0.033363137
-0.078352205 0.097205117 0.032244664
-0.081392467 0.13197397 0.041905791
-0.054951202 0.055054087 0.0088604419
-0.055064026 0.054604001 0.0091566369
-0.054871231 0.054996561 0.0091913063
-0.057193171 0.048716426 0.011769555
-0.052848212 0.057123251 0.011609486
-0.05660443 0.049871128 0.011828384
-0.04946408 0.060971502 0.015116964
-0.052651636 0.056709208 0.012202454
-0.057775091 0.046253894 0.013655949
-0.054182298 0.054015212 0.012953059
-0.073411703 0.14965057 0.029450638
-0.068921231 0.10665637 0.037821807
-0.074133605 0.098637223 0.035328973
-0.065400966 0.10912592 0.03836875
-0.070731387 0.16373202 -0.0461457
-0.080758229 0.1297754 0.043230757
-0.07027214 0.15518239 -0.019373639
-0.073103726 0.14423987 0.037963986
-0.06496986 0.088033184 0.038950205
-0.07848198 0.13788934 -0.001861011
-0.039964076 0.064823665 0.039754178
-0.047833215 0.053483915 0.036209308
-0.042818908 0.058936618 0.038341746
-0.057630531 0.038519811 0.035781037
-0.04746414 0.052782599 0.036601126
-0.061108161 0.035740484 0.035623938
-0.052177344 0.04279672 0.037366789
-0.038015012 0.05834917 0.040606849
-0.045714464 0.052088868 0.037791446
-0.031520054 0.071603775 0.044080306
-0.074039951 0.092912689 0.035485443
-0.073436536 0.088486202 0.035719011
-0.083807379 0.12012833 0.044187181
-0.044155777 0.15767457 -0.0037504139
-0.083409831 0.1227647 0.043967973
-0.083341733 0.12144936 0.044193543
-0.082373761 0.099447921 0.028049083
-0.072625928 0.14513385 0.037155323
-0.013568824 0.089359917 0.050245915
-0.024706911 0.063548908 0.046098176
-0.027731432 0.059936386 0.044774212
-0.032404408 0.053941783 0.043229055
-0.026669255 0.060852539 0.045237344
-0.027942443 0.059122901 0.044734243
-0.036108855 0.047459546 0.042608947
-0.027606782 0.090576649 0.04530381
-0.02128401 0.065729074 0.047771014
-0.033618275 0.084492266 0.044084612
-0.021547971 0.09206108 0.046890408
-0.075441815 0.090563655 0.034730989
-0.06697914 0.090531975 0.038413513
-0.070519723 0.16404104 -0.044538509
-0.067166723 0.16234945 -0.027896723
-0.069441535 0.091724157 0.037497111
-0.041229952 0.15943882 -0.0047779595
-0.042848352 0.053620834 0.038874101
-0.077869222 0.086711161 0.033084366
-0.043866444 0.15796579 -0.0038219178
-0.068283677 0.08817029 0.037844285
-0.064791963 0.086738922 0.038887251
-0.079786122 0.13371691 0.041755766
-0.07798449 0.10045917 0.032283526
-0.046404161 0.15616173 -0.0027546026
-0.083239943 0.09703479 0.026945034
-0.069558918 0.087722942 -0.014923158
-0.078210011 0.08568345 0.032677177
-0.043665621 0.090543419 -0.020809038
-0.075617179 0.12525649 0.044265147
-0.08062499 0.12952644 0.043325488
-0.074165545 0.091567084 0.035401262
-0.074546382 0.091606706 0.035211761
-0.069101967 0.1080697 0.03797834
-0.089494623 0.13543959 0.026766252
-0.087173305 0.14049616 0.02396269
-0.081463754 0.12072488 0.044647109
-0.092393689 0.12945703 0.024102431
-0.075856224 0.14823341 0.02992627
-0.0735531 0.1585601 -0.03820014
-0.070383996 0.16405661 -0.044876389
-0.074645095 0.14319299 0.038076416
-0.083931834 0.12238783 0.043760251
-0.019391231 0.17520522 -0.016815556
-0.067115948 0.16927636 -0.047815315
-0.0626451 0.15364838 -0.0077425702
-0.06779252 0.090221152 0.038129896
-0.081597909 0.14081994 -0.022776805
-0.065898374 0.11013199 0.038420461
-0.080889702 0.12931894 0.043297771
-0.072192453 0.091889359 0.036364879
-0.0078715449 0.088714801 0.051355287
-0.020329231 0.088451855 0.04847721
-0.034803342 0.079324774 0.043671113
-0.082366243 0.12650156 0.043638833
-0.069542281 0.15609443 -0.019315155
-0.066606089 0.16418153 -0.030291548
-0.066174783 0.11044007 0.038496345
-0.07728491 0.089280173 0.033513121
0.0080248229 0.10670371 -0.02044886
-0.057974663 0.047387801 0.011308867
-0.056949228 0.049934991 0.010729047
-0.055500917 0.053272247 0.010218864
-0.050997805 0.060034353 0.01229557
-0.052319732 0.057937581 0.012075284
-0.055517435 0.052400246 0.01147235
-0.056840409 0.048952173 0.012599037
-0.056504168 0.049584817 0.01285078
-0.058319613 0.045007143 0.014177868
-0.049474951 0.06054895 0.016596869
-0.058010545 0.044827975 0.015494773
-0.049249921 0.059671387 0.020491239
-0.051158898 0.05473664 0.028653014
-0.049862102 0.055146199 0.032817196
-0.04937999 0.05503007 0.033828303
-0.066896573 0.1695423 -0.048871521
-0.074961729 0.14698948 0.033145316
-0.066683859 0.11002937 0.038482256
-0.048520852 0.053382058 0.035695042
-0.049003284 0.051508963 0.035939351
-0.048619632 0.051544111 0.036304563
-0.051830407 0.044930357 0.036777228
-0.038818806 0.063784949 0.04035702
-0.046725966 0.053782996 0.036794886
-0.046143346 0.053995449 0.037127305
-0.04744054 0.052031729 0.036853954
-0.045848925 0.053165473 0.037466589
-0.045115788 0.053364567 0.037778642
-0.043521937 0.054171216 0.038476899
-0.082274526 0.12134288 0.044503249
-0.085589848 0.12002028 0.043186717
-0.088318475 0.11658149 0.041903377
-0.089467898 0.12161035 0.038664762
-0.07764779 0.09337686 0.033181686
-0.082413115 0.1337734 0.040040083
-0.03544094 0.077468567 0.043261047
-0.086483069 0.14136381 0.024164164
-0.069195732 0.087343305 -0.015071751
-0.069037303 0.086818472 0.037463482
-0.033964735 0.052815393 0.042720854
-0.0082760574 0.079094835 0.052712955
-0.037159808 0.04810423 0.04212648
-0.024000417 0.063436404 0.0464653
-0.023820439 0.06326317 0.046541322
-0.026076587 0.060400829 0.045543078
-0.0026186758 0.082427494 0.052877061
-0.043482579 0.04295304 0.040827725
-0.042643908 0.043252308 0.041110694
-0.028331347 0.052113246 0.045182645
-0.028162116 0.050234962 0.045450203
-0.021664025 0.056505624 0.047696952
-0.029269788 0.043828964 0.045833085
-0.028059596 0.043359458 0.046343438
-0.013876324 0.057732206 0.050520211
-0.024854815 0.043418419 0.04751483
-0.024304697 0.043370958 0.047703136
-0.011121603 0.057902005 0.05123134
-0.070161052 0.1380966 -0.0055899532
-0.068559177 0.086034045 0.037609804
-0.074985914 0.088004902 0.03478954
-0.079076692 0.12207292 0.044635702
-0.030842114 0.058668662 0.043503027
-0.070210584 0.087312669 -0.014596481
-0.083856061 0.067026511 0.030197423
-0.074784324 0.10486364 0.034341015
-0.067001663 0.11065375 0.038708828
-0.081231773 0.12120197 0.044629265
-0.07388857 0.14470445 0.037069488
-0.081631452 0.12624638 0.043945678
-0.083231546 0.067131676 0.029721884
-0.078257732 0.083715111 0.032241005
-0.075681217 0.14469557 0.035860054
-0.090307489 0.12090263 0.037928548
-0.083324783 0.13926962 0.034294769
-0.089669019 0.13119699 0.031891555
-0.091971964 0.11504029 0.038884353
-0.012676421 0.10526449 0.042900547
-0.022514839 0.07421802 0.047898769
-0.067445099 0.079962216 -0.015662545
-0.08525721 0.07941179 0.025987111
-0.07281933 0.14369293 0.038461152
-0.084594317 0.10245485 0.023782637
-0.068552814 0.087318957 0.037667394
-0.067690045 0.16653082 -0.039510701
-0.076434411 0.14433531 0.035643466
-0.075536281 0.095623098 0.034526471
-0.080496863 0.13468684 0.040774234
-0.075878941 0.13743718 0.041051105
-0.083026245 0.13764422 0.036392074
-0.093849234 0.11122629 0.039572202
-0.013709485 0.089206442 0.050259259
-0.016793702 0.088580996 0.049631584
-0.01263637 0.088867903 0.050616432
-0.070465863 0.10497981 0.037218086
-0.086363263 0.081417345 0.024516866
-0.045128014 0.086112984 -0.020608133
-0.071754016 0.087448731 0.036299217
-0.080915406 0.085156024 0.030542111
-0.050371371 0.1542023 -0.0013722711
-0.083902217 0.10311745 0.025362242
-0.083784193 0.10251942 0.025657369
-0.054916784 0.054630753 0.010122512
-0.055287227 0.053610019 0.01053269
-0.060443737 0.041522514 0.013112523
-0.07247211 0.092052765 0.036228508
-0.052279681 0.057633027 0.012748277
-0.058847211 0.043838166 0.014369083
-0.062008366 0.038376942 0.014594327
-0.058758009 0.042993594 0.01633033
-0.050269701 0.056667235 0.026401777
-0.052822776 0.052462786 0.026200732
-0.060115039 0.038406894 0.024245743
-0.046972342 0.062280055 0.032631639
-0.048665732 0.055743951 0.03467099
-0.048919927 0.054333117 0.034914646
-0.051040504 0.049703095 0.034640934
-0.049460959 0.051107083 0.035621002
-0.054184459 0.042644076 0.036040206
-0.048051205 0.05341506 0.036045484
-0.046477616 0.055860776 0.036593296
-0.047549516 0.053393349 0.036398515
-0.045350023 0.056430224 0.037238277
-0.04813594 0.050611101 0.036971267
-0.039296888 0.061027106 0.040022302
-0.058998309 0.037181761 0.035624955
-0.046492811 0.052208472 0.037337743
-0.046157621 0.052243404 0.037536573
-0.057044595 0.038235098 0.036409635
-0.083777599 0.10199413 0.02579361
-0.08443623 0.12038818 0.043742873
-0.081226237 0.10029457 0.029310895
-0.079252183 0.093087092 0.031952575
-0.037898652 0.058868453 0.040643081
-0.024167739 0.089695022 0.046726204
-0.033301003 0.086377546 0.04408386
-0.084437534 0.14298601 0.025808485
-0.070697553 0.13293707 -0.0057094628
-0.083533481 0.1017568 0.026188232
-0.039458711 0.047636699 0.041386947
-0.020809676 0.06748648 0.04806082
-0.025631884 0.06223058 0.045702517
-0.035503801 0.049359251 0.042574566
-0.035484742 0.048767298 0.042655136
-0.023254909 0.063373029 0.046813618
-0.026816554 0.059015129 0.045270134
-0.028209096 0.05612126 0.04483356
-0.020646947 0.06183859 0.047964301
-0.018545562 0.061137702 0.048831843
-0.027497157 0.050708465 0.045692485
-0.044795081 0.041408855 0.040580913
-0.020745166 0.055569615 0.048161142
-0.026296329 0.043991264 0.046946838
-0.027856532 0.043158766 0.046447538
-0.011276803 0.05862454 0.051232804
-0.0079452889 0.060166989 0.051984865
-0.0070927995 0.06127483 0.05220373
-0.082912542 0.10133932 0.027139865
-0.088241324 0.081459023 0.021642476
-0.021911375 0.044092976 0.048350174
-0.025690265 0.04150904 0.047429997
-0.081084989 0.10048962 0.029349398
-0.0087214168 0.093135998 0.049487654
-0.066222295 0.17055866 -0.049557414
-0.083320528 0.12167607 0.044066638
-0.079838715 0.1249856 0.044483241
-0.069230258 0.13477992 -0.0058365152
-0.081205949 0.12964465 0.043048419
-0.015862277 0.087535992 0.0501724
-0.059462719 0.15009886 0.032111648
-0.076128401 0.14720331 0.031523626
-0.078869514 0.14076175 0.037374735
-0.074918382 0.14502186 0.036030453
-0.081977516 0.13912742 0.036070064
-0.07789696 0.090267345 0.033051562
-0.086961225 0.14154232 0.021575335
-0.07571961 0.086765639 0.034257952
-0.078129694 0.10106802 0.032068457
-0.086095594 0.12231055 0.042035747
-0.075966835 0.10189942 0.033878163
-0.073132187 0.08396516 0.035220362
-0.066550843 0.11107104 0.038770363
-0.080122344 0.095701233 0.031033643
-0.073446549 0.09263894 0.035733178
-0.080321237 0.12960517 0.043287359
-0.033462685 0.077171706 0.043946974
-0.081107609 0.14031 0.03563999
-0.078947067 0.097597457 0.031658001
-0.067549869 0.16847314 -0.047567565
-0.082372986 0.12567368 0.04377339
-0.067138053 0.10920476 0.038404636
-0.079246767 0.084665135 0.031795207
-0.085406512 0.080611743 0.025469569
-0.077289127 0.094221011 0.033372831
-0.080439299 0.12981619 0.043196432
-0.088089801 0.082706071 0.021723395
-0.082830846 0.086274385 0.028843233
-0.069704764 0.10677271 0.037664764
-0.072470106 0.098793507 0.036171757
-0.083114244 0.088379979 0.02824753
-0.068876408 0.08675164 0.037480708
-0.035799894 0.080990657 0.043496288
-0.072037354 0.08328905 0.035595484
-0.076314405 0.091204487 0.034110997
-0.064891927 0.17246269 -0.050708164
-0.086519964 0.08123865 0.024254348
-0.057410352 0.046034195 0.015899653
-0.051984031 0.055253912 0.026351621
-0.047720179 0.062743872 0.025398785
-0.047033135 0.063350976 0.025790906
-0.046651416 0.064290263 0.029149378
-0.05178266 0.053626467 0.029944649
