# .PCD v0.7 - Point Cloud Data file format
VERSION 0.7
FIELDS x y z
SIZE 4 4 4
TYPE F F F
COUNT 1 1 1
WIDTH 1354
HEIGHT 1
VIEWPOINT 0 0 0 1 0 0 0
POINTS 1354
DATA ascii
0.048687708 0.082717307 0.026220599
0.041161302 0.074634798 0.025170101
0.048759501 0.081678405 0.0241159
0.062377751 0.094790548 0.0229667
0.060867049 0.092809245 0.021720899
0.057319496 0.088851094 0.0204549
0.038430784 0.069616079 0.0190905
0.024898263 0.071665965 -0.0157743
0.034042925 0.076009624 0.0131626
0.04114037 0.071700864 0.014129
-0.076426826 0.11630417 0.0023360599
-0.027276851 0.16180596 0.00108834
0.046696428 0.11155683 0.0111617
-0.012345644 0.18465476 -0.023764299
0.040101998 0.10232601 0.029376101
0.04308496 0.10469166 0.028494401
0.022902425 0.089621022 0.030288501
0.021125406 0.10326 0.033732101
-0.032482486 0.17013592 -0.0077938498
-0.036845483 0.16470312 -0.0030439899
0.023826081 0.099422581 0.0370747
0.027231071 0.090177976 0.012164
0.029893041 0.11132395 0.032999299
-0.042751908 0.14841019 0.0035864101
-0.056580074 0.14533971 0.036183901
-0.07250908 0.12868911 0.035443299
-0.0497742 0.1507584 0.0346529
-0.052817669 0.14700644 0.033932101
-0.054312199 0.1381852 0.036400799
-0.063341081 0.13004452 0.036869202
-0.067876682 0.12638882 0.037289299
-0.067714237 0.14991036 -0.0155862
-0.10855309 0.11175011 0.026269101
-0.024313238 0.17179187 -0.0088303704
0.042271227 0.08551053 0.00717609
-0.079608455 0.11303505 0.0043810601
-0.057529695 0.14196841 0.0164166
0.036126729 0.087932937 0.00318315
-0.010402244 0.093185291 0.0418882
0.034546454 0.093069151 -0.00581339
-0.065217733 0.15423547 -0.0068824599
0.049637947 0.10054685 0.0271705
-0.072263077 0.13282081 0.0390925
-0.024069235 0.17367966 -0.0117738
-0.04469873 0.14546296 0.0022334801
-0.013596152 0.17562775 -0.0228491
-0.011813551 0.19319525 -0.0069630099
0.00051288825 0.083462194 0.043761998
-0.033953678 0.16938773 0.00245451
-0.045264799 0.15550829 0.0047083502
-0.046753574 0.15754512 0.034083299
0.038692787 0.091519184 0.031428501
-0.043038376 0.14850833 0.037517201
-0.067548715 0.12788579 0.0454963
0.05714469 0.098132692 0.021163501
-0.068687931 0.10949447 -0.0065641301
0.011904193 0.1249588 0.034069099
-0.043402214 0.13140948 0.036551502
0.042160433 0.088726841 0.0241674
0.037430864 0.084782861 0.0261862
0.042343959 0.089259259 0.025167299
0.02735294 0.10212554 0.036523901
-0.090215161 0.11368384 0.051196001
-0.067885518 0.11336328 0.0460384
0.041246537 0.11310323 0.0041658399
-0.065563671 0.10868043 0.0367302
-0.024032125 0.15983197 -0.00173809
-0.047930509 0.1501472 0.0020301801
-0.07282079 0.099812105 0.032839999
-0.042863399 0.13489971 0.039493199
-0.0672355 0.1180029 0.0447625
-0.052440085 0.13216491 0.051283602
-0.048127681 0.13041522 0.034087501
-0.054344717 0.16908988 -0.034591001
0.019006204 0.088227503 0.0550109
0.021832744 0.090117544 0.0546505
0.011656479 0.078958675 0.054334801
0.03589442 0.10209613 0.054232601
0.011195221 0.076356821 0.0540604
0.043467321 0.10764072 0.053811599
0.024713401 0.0879483 0.053465098
0.0049863644 0.067237362 0.053139899
0.037601255 0.098954454 0.052714299
0.030634414 0.091124415 0.052221902
0.029298253 0.088983655 0.051611502
0.025235228 0.08410193 0.051047899
0.012596755 0.070626758 0.050512701
0.01408371 0.071267806 0.049994402
0.022406455 0.078696653 0.0495474
0.026074342 0.081478544 0.049081199
0.024997592 0.079593286 0.048494
0.032664452 0.086527452 0.047792401
0.015342576 0.06853158 0.0469281
0.032141149 0.08461985 0.046213899
0.020383965 0.072094165 0.045564901
0.021761512 0.072678812 0.044941999
0.011776057 0.061862256 0.044410501
0.038041476 0.087309681 0.043839399
0.030502813 0.078927509 0.0433085
0.025239488 0.07284189 0.042745899
0.030937886 0.077758491 0.0421017
0.035786361 0.081832059 0.041450601
0.037083998 0.082417801 0.0407378
0.024218291 0.068875797 0.039915599
0.015666716 0.059653811 0.039080098
0.03387735 0.077235647 0.0382118
0.02705989 0.069782488 0.037304599
0.04260971 0.084621109 0.0366005
0.054960314 0.096254617 0.035854898
0.043245513 0.083848916 0.035089102
0.036816265 0.076794669 0.034172099
0.035781045 0.075152747 0.033240899
0.047708414 0.086458109 0.032317601
0.033304188 0.071472488 0.031368699
0.027657913 0.065279312 0.0303335
0.037463885 0.074554279 0.0292753
0.050461743 0.087024748 0.028208099
0.056080859 0.092015855 0.0272636
0.040024452 0.075371444 0.0263023
0.039637234 0.07445503 0.0251667
0.052269734 0.086527437 0.024116
0.040348381 0.07410828 0.023039799
0.038793307 0.072086014 0.021795399
0.051447425 0.084340431 0.020529199
0.067304373 0.099872775 0.019077299
0.045346338 0.077725843 0.017325999
0.059031498 0.091234699 0.0155769
-0.054759562 0.11442434 0.0319359
0.026467554 0.13395205 0.033394098
-0.060871035 0.11915477 0.040959202
-0.039872713 0.15750849 -0.00163299
-0.057697508 0.1200785 0.039323501
-0.069811642 0.15358496 0.0042424002
0.036832083 0.10282368 0.034674
0.042732622 0.10810612 0.028671799
0.028798712 0.10947771 0.032304201
-0.022473302 0.18259899 -0.0043397499
-0.022793535 0.17742237 -0.0046164398
0.0030627351 0.11171553 0.043766901
-0.029293232 0.16685258 -0.0129655
-0.034829602 0.16213569 -0.0123976
-0.064413831 0.13925526 0.039019398
-0.076948591 0.12617511 0.0380296
-0.051818337 0.13758466 0.033868
-0.059884291 0.13021411 0.034604099
-0.06164911 0.12920688 0.035273001
-0.058259018 0.13334969 0.0359191
0.020785365 0.10081307 0.0314731
-0.050173648 0.14597766 0.0068201101
-0.10104576 0.094653435 0.023355501
0.057958409 0.12069101 0.0355669
-0.036595333 0.16357605 -0.0059138499
-0.063580208 0.12388279 0.0194044
0.029943742 0.12023604 0.031316899
0.0091037918 0.10110509 0.0323736
-0.064313218 0.11555339 0.040118098
0.034218382 0.085880883 0.0041727
-0.099707499 0.096014701 0.000219247
0.050770916 0.11046471 -0.0078278501
-0.087278202 0.14036618 -0.00082706299
0.034175072 0.090458676 -0.0078028599
-0.065936744 0.13973425 0.039997902
0.02969172 0.093227625 0.018167101
-0.024886061 0.16613065 0.00275895
-0.016824991 0.1836648 -0.0154935
-0.022134809 0.1822194 -0.0077530202
-0.021122789 0.17645501 -0.0155929
-0.046161909 0.14866678 -0.00458082
-0.055520222 0.14317018 0.0295389
-0.058496077 0.14527422 0.033094399
-0.052660957 0.14008254 0.0064319102
-0.071862191 0.11879422 0.0370402
-0.050793059 0.12280364 0.0361741
-0.054948315 0.12131438 0.0390612
0.025136666 0.11697267 0.0341991
0.018919462 0.13110366 0.033628002
-0.05656955 0.12462715 0.041362099
0.035483059 0.080375157 0.0121603
-0.033127271 0.16307834 0.0090469904
-0.0832403 0.065720595 0.0104198
-0.052173819 0.14489987 0.050010201
0.036380924 0.08465492 -0.0137857
0.013006039 0.11079664 0.034647699
-0.05894791 0.12184069 0.044916999
-0.063720547 0.11660516 0.0436447
-0.065665461 0.11149044 0.038603298
0.053307328 0.10497373 0.0294955
0.027877362 0.088607863 0.039824702
-0.079445064 0.10620104 0.0519481
-0.078898728 0.10765677 0.052336801
-0.036414776 0.13331261 0.033989299
0.041920342 0.11469544 0.043916799
-0.063500807 0.1298167 0.038427901
0.0038666492 0.074551679 0.054835301
0.014379952 0.084145352 0.054460801
0.01902201 0.087840408 0.054099102
0.0034541979 0.071236901 0.0538726
0.013413385 0.080150791 0.053704102
0.012132384 0.077886678 0.0534508
0.0089457911 0.073708691 0.053141899
0.023591725 0.087366425 0.0528345
0.012470746 0.075310245 0.052498601
0.032576807 0.094536103 0.052032601
0.022869358 0.084009059 0.051456001
0.032828365 0.092956968 0.050947301
0.010868184 0.070279188 0.050467301
0.022625959 0.081121556 0.0500644
0.02778995 0.085391551 0.049633801
0.013860088 0.070613489 0.049096599
0.028963851 0.084931351 0.0484627
0.031384446 0.086622551 0.047736
0.022859095 0.077394597 0.0469671
0.015335543 0.069169641 0.046205301
0.01639422 0.069497623 0.045477901
0.022332223 0.074676923 0.044815298
0.03330626 0.084825858 0.044266298
0.039883994 0.090561494 0.0437374
0.019961068 0.069767468 0.043256599
0.040317781 0.089300282 0.042698
0.036342308 0.084510207 0.042126201
0.028297372 0.075703368 0.041436199
0.042420268 0.089104466 0.040731199
0.02116021 0.06716641 0.039907601
0.022812739 0.068191141 0.0390375
0.029081555 0.073858157 0.038054101
0.041662082 0.085761182 0.037275799
0.01678651 0.060156316 0.036582801
0.038918655 0.081564456 0.035847001
0.037407387 0.079359487 0.0350812
0.029235151 0.070543647 0.034234501
0.036195632 0.076856934 0.033413898
0.041154951 0.081205055 0.032398801
0.042252779 0.081732675 0.031448599
0.041672602 0.080635205 0.0304012
0.031475648 0.069874145 0.0292856
0.050433017 0.088264219 0.028312599
0.04188972 0.079125121 0.027354
0.04713482 0.083806723 0.0262342
0.037827253 0.074043453 0.0252067
0.049555968 0.085301466 0.0241291
0.059505746 0.094630249 0.023028299
0.035798796 0.070482194 0.0216904
0.04751464 0.081807941 0.0204223
0.053750582 0.087761283 0.0189631
-0.0038653081 0.097310744 -0.0203065
-0.034052677 0.16863762 -0.0051855198
0.042134512 0.10428061 0.034624301
0.038216513 0.099766612 0.033684999
0.032775715 0.093656518 0.0328651
0.03655887 0.09674827 0.032090601
-0.029479945 0.15919526 -0.00472466
0.041303605 0.1092741 0.038731001
0.038865987 0.10555979 0.035418
0.052758105 0.1175365 0.027728301
0.022152899 0.10153379 0.0306261
-0.020135021 0.18429287 -0.0051450399
-0.022829132 0.17409396 -0.0068447101
-0.029118693 0.1727293 -0.0125853
-0.016513489 0.16035885 -0.018055201
-0.056839369 0.14914863 0.042791899
-0.066355586 0.14025731 0.0437201
-0.060722973 0.12710702 0.032586999
-0.056636598 0.1319492 0.033261999
-0.065034099 0.16038661 -0.0425932
0.040607449 0.11934584 0.0297678
0.025573812 0.10366742 0.028922699
0.036875129 0.11433312 0.0280456
0.030030716 0.11209711 0.0432887
-0.053534832 0.14573666 0.0305002
0.022798954 0.10051395 0.031103199
-0.037358943 0.15227106 -0.00437298
-0.07497707 0.10750173 0.049140502
-0.075938053 0.10031074 0.037693299
-0.069958314 0.11112089 0.0472279
0.022944117 0.11412401 0.031799398
-0.060155749 0.12111275 0.047377199
-0.034226492 0.16411491 -0.00125909
-0.058915518 0.15872508 -0.033601198
0.057530075 0.098765269 0.00018618599
0.031819958 0.086230561 -0.00478826
-0.055961054 0.15094145 0.041776501
0.034254272 0.09767317 0.017166199
-0.046695083 0.14687762 0.0043274499
-0.034574784 0.14434901 -0.00657359
-0.081435226 0.13459186 0.0112823
-0.016502647 0.18027975 -0.016196899
-0.018527163 0.16500184 -0.0091357604
0.020714799 0.1168208 0.035149898
0.040367559 0.10123086 0.0121565
-0.063906081 0.13075112 0.027605399
-0.061967362 0.12189194 0.031005999
-0.049000032 0.13634497 0.0386502
0.057988692 0.1193995 0.0161642
-0.044572253 0.15990426 -0.00115359
0.028987799 0.077174 -0.00278755
-0.054646414 0.12735949 0.0419471
-0.069823839 0.12572786 0.047462001
-0.053941742 0.13069525 0.0159973
-0.063870512 0.13586749 0.012837
-0.031766154 0.15258674 0.0145941
-0.086716525 0.11111518 0.050677199
-0.034364488 0.16444662 0.0138388
-0.045000747 0.14951885 0.00561766
0.01715656 0.094294563 0.039870899
-0.050029967 0.12981203 0.042545401
-0.073244445 0.10608485 0.041368
-0.0083939964 0.16964191 -0.018759901
-0.049153358 0.12519054 0.037967499
-0.064941891 0.1085538 0.037428401
-0.073212594 0.1071484 0.045275599
0.0053686225 0.080270573 0.055839598
0.0099358112 0.0838622 0.055529598
0.0068157259 0.079812557 0.0551438
0.017872833 0.089921422 0.0548044
0.0045353444 0.075697042 0.054364599
0.00085524598 0.07114055 0.053889502
0.027148325 0.096505828 0.053502601
-0.0062021739 0.062166322 0.053236101
0.0001773168 0.067565814 0.052970301
0.01265505 0.079050757 0.052678201
0.0066552181 0.072065219 0.052400999
0.0076847603 0.072103858 0.052097801
0.027485685 0.091028586 0.0516425
0.023688255 0.086350054 0.051168401
0.021162439 0.082891643 0.050803602
0.023938915 0.084724009 0.050457802
0.0065161036 0.066382602 0.0500191
0.02363684 0.082667135 0.049498599
0.026401 0.084598497 0.0489414
0.018415213 0.075824112 0.048314098
0.015931569 0.072620474 0.047580302
0.028253319 0.084182218 0.046913501
0.032164346 0.087337852 0.046209201
0.039042577 0.093483977 0.045515899
0.027206622 0.080982529 0.044683099
0.036988724 0.089987725 0.044043198
0.017711738 0.06985154 0.043547701
0.025113871 0.076381974 0.043072701
0.052024432 0.10241793 0.0425933
0.04079356 0.090385459 0.0419892
0.025312986 0.074133784 0.041329999
0.032614641 0.08070384 0.040633399
0.033345066 0.080758467 0.039805502
0.030302811 0.077102408 0.038878601
0.037871782 0.084039576 0.0380155
0.017253131 0.06272503 0.037252299
0.043575786 0.088317886 0.036558699
0.024453225 0.06849353 0.035756301
0.04235689 0.085675687 0.035059899
0.061723281 0.10435188 0.034299701
0.039396517 0.081374116 0.033403799
0.032360103 0.073737502 0.032467399
0.039580636 0.080408037 0.031441599
0.03825219 0.078534491 0.030409301
0.034912679 0.074630275 0.0294354
0.044582114 0.083684012 0.0284169
0.037009642 0.075528547 0.0274518
0.047394421 0.08537823 0.0262681
0.010868102 0.081386402 0.046747699
0.036154103 0.088729404 0.0283252
-0.07327386 0.17981553 -0.052946299
0.014027566 0.094011769 0.048703302
-0.062331907 0.10657329 0.033414301
-0.075891934 0.13415387 0.00430245
0.036777135 0.11653314 0.033502299
-0.042276639 0.15851466 0.00183362
-0.076105095 0.1035092 0.044056401
-0.017871439 0.18655057 -0.00384226
0.060759831 0.13713254 0.0294894
-0.055529755 0.11365334 0.0270727
0.037640333 0.13319834 0.031074001
0.028208489 0.095520087 0.0379171
0.039857462 0.10729646 0.036106698
0.028561428 0.07910683 0.0274869
0.039866608 0.11668671 0.0271807
0.037804756 0.12884176 0.035174601
-0.013251557 0.18107384 -0.0083832797
-0.047690481 0.14746182 0.0074438299
-0.069422014 0.11446559 0.050653201
-0.067735113 0.13955809 0.044515502
-0.060510982 0.12662461 0.0318349
0.054748312 0.11325661 -0.0108822
0.037210472 0.087619469 -0.00379718
0.027282601 0.067584902 0.00717824
0.038486611 0.097084813 0.037589598
0.030061508 0.08932931 0.038406201
-0.053471226 0.14524397 0.0083453897
0.029634925 0.12492193 0.0346491
-0.073802508 0.10331539 -0.0055645602
-0.025245225 0.17721117 -0.0117033
-0.042363957 0.16176735 0.00442786
-0.049167205 0.12544049 0.036570001
-0.056101196 0.1194056 0.037012398
-0.078416459 0.10322444 0.048123699
0.036497772 0.11426007 0.045655299
-0.038482491 0.16238531 -0.0052207201
0.037983786 0.131497 0.033647601
-0.069102883 0.15642321 -0.044595901
-0.085962616 0.15298979 0.0121684
-0.061295629 0.14513017 0.033472199
-0.064562015 0.14292547 0.042738698
-0.058561344 0.15416725 0.039866701
-0.034914117 0.15777959 0.0038326301
-0.037268527 0.16542548 0.000185179
-0.049699496 0.1746632 -0.053590901
-0.021695016 0.17434607 -0.016887899
-0.01261694 0.16995747 -0.0094853602
0.024129085 0.098086692 0.035939801
-0.030295935 0.15270466 -0.00223977
0.02570151 0.11396851 0.0339562
0.019863136 0.10988663 0.034850601
-0.055170767 0.14603363 0.036883999
0.042721312 0.10368511 0.0131587
-0.021109743 0.17974456 -0.00652433
0.041098908 0.088295408 0.00017981599
-0.079448149 0.10329905 0.042692401
0.051171176 0.094530076 0.0051780702
0.029596779 0.11323427 0.0381638
-0.069824249 0.11552136 0.040112399
-0.068339892 0.11612371 0.039640401
-0.05129236 0.13234715 0.0390945
-0.054815687 0.12806712 0.0384169
-0.026393263 0.18142843 -0.0150111
0.020394433 0.099867634 0.0434114
-0.016392332 0.17042586 -0.018766301
-0.053369809 0.1297158 0.0457283
-0.02192862 0.15617879 -0.00754965
-0.0016925611 0.18300304 -0.0164639
0.023178907 0.10594651 0.0377477
0.012522737 0.089561388 0.056461301
0.00069029449 0.076788515 0.056106199
0.0047412198 0.079856835 0.055812199
0.011750376 0.085938945 0.0554277
0.012345527 0.085649222 0.054969601
0.0042755883 0.076695189 0.054513201
0.017262647 0.088860646 0.053943198
0.016274437 0.087089635 0.053328998
-0.0073234602 0.062598437 0.052896801
0.022757107 0.091719411 0.052545302
0.013572266 0.081547767 0.052260701
0.017993025 0.085035622 0.051934499
0.022817928 0.088874325 0.0516215
0.041776702 0.123542 0.0374141
0.010348738 0.074536435 0.050880499
0.028555356 0.09175466 0.050588001
0.0080431392 0.070305243 0.050254598
0.014321603 0.075651899 0.0498509
0.01565196 0.076105163 0.049361099
0.020955291 0.080625691 0.048744399
0.019210838 0.078099042 0.048108298
0.028940096 0.087077297 0.047410201
0.023936711 0.081222907 0.046876699
0.010662468 0.067135461 0.046296202
0.032753084 0.08852338 0.045536
0.02057139 0.075697094 0.0446794
0.026731927 0.081250027 0.043775499
0.032927483 0.086582787 0.043228898
0.020947384 0.073661678 0.042874701
0.02696728 0.078776978 0.0424885
0.023252774 0.074220374 0.041952599
0.027773311 0.077974506 0.041291501
0.02385187 0.07335557 0.040526401
0.033909813 0.082705513 0.039772101
0.033452556 0.081620052 0.0388598
0.023041757 0.070549756 0.038066499
0.04399268 0.090824783 0.037190899
0.028035356 0.074151956 0.036488999
0.034811497 0.080207795 0.035747599
0.023170143 0.067849346 0.0350467
0.048249196 0.09223979 0.034231599
0.044391952 0.08775045 0.033373401
0.043196488 0.08593978 0.032449
0.041708935 0.083880834 0.031438001
0.033314485 0.074955285 0.030396599
0.028354688 0.069427289 0.029355301
0.036943931 0.077418432 0.0284671
0.058724944 0.098599747 0.0275132
0.027092032 0.066467732 0.0263179
0.017967576 0.089422069 0.047143601
0.030317243 0.082334042 0.027285799
0.044073887 0.084282689 0.0081748897
0.013121093 0.092219494 0.048209399
0.024825318 0.091812722 0.028262099
-0.048650853 0.14280826 0.028077601
0.035138872 0.11419847 0.0327245
0.024861794 0.098503597 0.046069801
0.043270294 0.11603409 0.045587
0.025127467 0.097070172 0.045015302
0.04650671 0.10506361 0.032558601
0.046408352 0.10794875 0.042011399
-0.046688899 0.14422609 0.0270749
0.020736722 0.087242626 0.037300099
0.042312227 0.11051223 0.0367685
-0.08835306 0.10492744 0.048193701
0.031444196 0.094480298 -0.0027570799
0.009048881 0.078686781 0.046276499
-0.018597782 0.17235023 -0.013264
-0.036306325 0.15623018 -0.0093101496
-0.089045659 0.12903705 0.0252761
0.035673197 0.1088196 0.0353509
-0.079260781 0.12877671 0.0452157
-0.060324665 0.12611774 0.0310668
-0.066085897 0.15494451 -0.0185846
-0.01353598 0.18345442 -0.0110774
-0.052461978 0.13212432 0.037994299
-0.051509447 0.11865096 0.025905799
-0.038129654 0.13137895 0.025084401
0.032384012 0.080778509 0.0031822301
0.015233892 0.096183188 0.036887299
0.025930779 0.10611988 0.036258299
0.03259027 0.10497247 0.034697101
-0.015311221 0.18586537 -0.0147237
-0.063304991 0.12323341 0.049811501
-0.07009013 0.12768216 0.052198499
0.035250321 0.11468442 0.035578199
-0.057639889 0.12010241 0.038174499
-0.021303501 0.1690964 -0.019190799
-0.070652694 0.11418121 -0.0075988201
-0.060825266 0.12321144 0.042839602
-0.064419039 0.15174606 -0.031606801
0.042937227 0.087966628 -0.0107788
-0.046543777 0.15563692 0.0103738
-0.076079749 0.13020045 0.040942799
0.023391197 0.1021229 0.034829602
-0.042353965 0.14949484 0.0033128699
-0.046356376 0.15689963 0.00115508
-0.011355843 0.17067605 -0.017846299
-0.027030421 0.16821389 -0.017491
-0.028205397 0.17299761 -0.0120308
0.037463445 0.11549325 0.034080502
0.026313456 0.11644746 0.033160001
0.031801954 0.10913985 0.033294499
0.038059153 0.12720755 0.034410901
-0.051415596 0.13821101 0.028712099
0.038132727 0.11487042 0.0323781
-0.028342083 0.17488903 -0.016492199
-0.019193619 0.18329038 -0.015788799
-0.052808564 0.13051634 0.0436785
-0.0062376545 0.19739664 -0.0125756
-0.030585147 0.15327746 -0.00457012
0.027489528 0.10354243 0.031586301
0.032886963 0.10827706 0.030764399
-0.013750766 0.18551394 -0.0186063
-0.054135576 0.12805924 0.037641801
-0.063172832 0.12015257 0.048610602
-0.061990626 0.12189808 0.049591601
-0.068942375 0.11388653 0.047609199
-0.054747738 0.12757456 0.046532601
-0.074194543 0.10773306 0.0453283
-0.072137147 0.10880595 0.043056499
0.041389864 0.11607667 0.0300072
0.019688092 0.093678184 0.0292348
-0.0066985223 0.0706141 0.056313101
0.0098795732 0.086236455 0.055998299
0.015417689 0.090844095 0.0556174
-0.00080529123 0.073748015 0.0551401
0.0090477318 0.082728438 0.0546683
0.02074354 0.093620241 0.054069601
0.0032712391 0.075345241 0.0534757
0.014709169 0.085968666 0.052890498
0.022740064 0.093186058 0.052311599
0.013814951 0.083358549 0.051915798
0.016608231 0.085217834 0.051557399
0.012256021 0.079943419 0.051153
0.041387331 0.11473513 0.028374201
0.027996851 0.10076435 0.027410099
0.0058948142 0.07067652 0.0502217
0.024963809 0.088753611 0.0499424
0.024682667 0.087536469 0.0495666
0.022456413 0.084479108 0.049031001
0.021219688 0.082459286 0.0483924
0.036595367 0.096996769 0.0478503
0.029958636 0.089497335 0.047403902
0.021404369 0.080016769 0.046936098
0.026865961 0.084669463 0.046347301
0.019057963 0.076181062 0.045524999
0.027105862 0.083594263 0.0446615
0.028439548 0.084326446 0.043728001
0.029959479 0.085013777 0.043189902
0.023976898 0.078096397 0.042814702
0.025261166 0.078410663 0.042506699
0.039701279 0.091983579 0.042017002
0.047907226 0.099408425 0.041374002
0.036902852 0.087717347 0.040555399
0.041967664 0.092110164 0.039769702
0.043543469 0.092999376 0.038946301
0.02795426 0.076776564 0.038086001
0.041313831 0.089485124 0.037239399
0.037645966 0.085123971 0.036473799
0.0364298 0.083199099 0.035721902
0.033760875 0.079839878 0.034951001
0.034634862 0.080041163 0.034124698
0.03951709 0.084265292 0.0332858
0.038620308 0.082740307 0.032423399
0.02514668 0.068672679 0.031427301
0.048099667 0.091093063 0.030448999
0.038844705 0.081305407 0.029329199
0.046765435 0.088601239 0.028454401
0.036844116 0.078082114 0.027497999
0.032761905 0.073472202 0.026437899
-0.026462246 0.15346566 -0.0077791801
-0.067562014 0.13451728 0.0440071
0.02300854 0.083625942 0.0297824
0.047064811 0.092158511 0.0031762
-0.084382161 0.096741736 0.034244899
-0.069034159 0.11865724 0.0184032
-0.059288979 0.10940732 0.032287098
-0.046549499 0.13494959 0.042471699
-0.062491603 0.11051899 0.037831798
-0.043282673 0.15262803 0.0046317698
0.027841149 0.08780355 0.034065802
-0.006220724 0.10258223 -0.0223953
-0.066855848 0.11138655 0.037510902
0.029650249 0.095436744 0.036592402
0.029724305 0.10585131 0.042902499
0.028746272 0.10405247 0.042250499
0.041730896 0.10657789 0.037814599
0.033494089 0.078733586 0.00218472
0.036723778 0.10308488 0.043974001
0.041924424 0.11402582 0.026576901
-0.024640661 0.16692384 -0.0097072404
-0.094800971 0.13461272 0.0122011
0.039702859 0.11142536 0.033884998
-0.07256259 0.1361964 0.045938998
0.036033873 0.079725571 0.0021780999
-0.057165422 0.17181058 -0.058584601
-0.036009923 0.15933008 -0.0122056
-0.042069469 0.13213614 0.032676999
-0.050774124 0.12281607 0.031732298
-0.035261575 0.15995492 -0.0078902002
-0.066762015 0.12130168 0.037022699
-0.030233288 0.1650546 -0.0135004
-0.079563648 0.060777757 0.018277399
0.040651295 0.11168019 0.033105899
-0.079554446 0.10834205 0.0513831
-0.053884927 0.13329338 0.050673299
-0.015379777 0.16468441 -0.0170453
0.039971609 0.087423503 -0.00080891
0.00076623569 0.19419564 -0.0088620503
-0.068677947 0.10963945 0.039236501
0.0097294962 0.10747306 -0.0206053
-0.035791963 0.16741984 -0.0056138402
0.027015669 0.094142571 0.043017901
-0.056228694 0.11356941 -0.015866101
0.033656564 0.075519562 -0.0027965901
-0.039040543 0.15534505 -0.0098921498
-0.066669554 0.13781434 0.038141299
-0.057189237 0.11830146 0.034406699
-0.021529987 0.16778272 0.00170747
-0.026672218 0.17722908 0.0020242101
-0.019391647 0.18564436 -0.0138786
-0.0058189412 0.18865885 -0.018141
-0.019784478 0.16477363 -0.00888333
-0.074467458 0.10740024 0.0474107
0.013682973 0.078362875 0.039678901
0.030022874 0.074185371 -0.00081185403
0.040901165 0.095006064 0.028026801
-0.053113386 0.14837252 0.0431027
-0.046889029 0.12879477 0.0326401
-0.03666044 0.16603866 -0.0039025899
0.034594629 0.094619229 0.028831
-0.0151529 0.1799687 -0.023168899
-0.027858684 0.16350542 0.0040847901
-0.0046019107 0.18482569 -0.0186712
0.039501283 0.10331319 0.0289909
-0.043057058 0.15978624 0.0055146702
-0.038224883 0.16505371 -0.0042930502
-0.055180859 0.12564594 0.041606601
-0.054094963 0.12790005 0.039432298
-0.023322027 0.17598757 -0.0105089
-0.028643392 0.15647142 -0.00054022699
-0.042557284 0.15140292 0.00410154
-0.047864247 0.15655635 0.0081830602
0.045102403 0.099584304 0.034446899
0.056055419 0.12165442 -0.0028288299
-0.022992974 0.18068704 -0.0099468296
0.02837633 0.099139132 0.035123602
0.012171553 0.089877985 0.056009199
0.0013656669 0.078148276 0.055614602
-0.0060444851 0.069827221 0.0551829
0.011850212 0.086864516 0.054699201
0.022964861 0.097098261 0.0542349
0.01417908 0.087497674 0.0536553
0.012080259 0.084615462 0.053024702
0.010934729 0.082732335 0.052327901
0.023790877 0.094740376 0.051804699
0.017908726 0.087988026 0.0513294
0.022202434 0.09145993 0.050781999
0.046281036 0.10324374 0.0061679501
0.019855598 0.1044234 0.037070598
-0.056694567 0.12868524 0.047933899
-0.006105924 0.059267476 0.049533699
0.027358148 0.091795146 0.0491664
0.044797987 0.10835759 0.048688799
0.011974229 0.074670129 0.048332199
0.028800776 0.090509474 0.047899898
0.029723171 0.090555467 0.047437601
0.023011485 0.082983084 0.046920199
0.030216437 0.089434437 0.0462384
0.021783167 0.080341868 0.045396701
0.026724193 0.084662788 0.044515401
0.031313699 0.088562697 0.043713499
0.040007934 0.096408539 0.043197099
0.044476487 0.099890992 0.042913601
0.018115394 0.072517999 0.042668801
0.032037225 0.085545324 0.042221501
0.031919919 0.084646218 0.0416032
0.035687137 0.087734833 0.0407864
0.046002336 0.097403027 0.0399362
0.042256121 0.093008325 0.039085999
0.028915716 0.079043917 0.0381664
0.017783858 0.067279257 0.037306499
0.022622777 0.071450777 0.036471501
0.040293895 0.088439398 0.035647299
0.039910544 0.087381437 0.034868099
0.031252518 0.078055419 0.034033701
0.029036321 0.075176723 0.033193901
0.040788259 0.086294062 0.032335099
0.049433257 0.09436556 0.031383801
0.047944486 0.092331491 0.030355901
0.055081904 0.098946102 0.0292923
0.058172677 0.10142978 0.028340099
0.053438868 0.096091971 0.0273897
0.045697693 0.087958694 0.026201401
-0.030730758 0.15699033 -0.0050722901
-0.046708286 0.12055251 0.033785898
0.0189509 0.091731198 0.0407486
0.0076708589 0.11259158 0.041959502
-0.068511523 0.12132379 0.036483601
-0.032968588 0.14134251 0.036932901
-0.064520702 0.110869 0.038592901
0.020909151 0.093896851 0.046824701
0.030730546 0.090253539 0.036378998
0.0382987 0.0853085 0.00119217
0.044723559 0.10400896 0.0332563
-0.077353679 0.15016402 -0.00186858
-0.084105 0.11196131 0.0512206
0.032370407 0.097409509 0.035906699
0.04598764 0.10908894 0.033374999
0.029474027 0.10642073 0.043460801
-0.033877783 0.16512161 0.0023511299
-0.075222231 0.12007847 0.050576702
-0.049387503 0.1404914 0.00279786
-0.0027482875 0.1809293 -0.021217801
-0.023787033 0.16601296 -0.0105567
0.029497122 0.09810362 0.041203
0.043914083 0.11425469 0.032320701
-0.075396314 0.13418338 0.046511799
0.053796176 0.097661376 0.00117113
-0.050528668 0.12889664 0.033093501
-0.061529428 0.14242437 0.046704799
-0.073993534 0.10903607 0.041104998
-0.023304919 0.18053998 -0.00067132403
-0.041323178 0.14806013 0.0021102901
-0.055414025 0.13932168 0.033679102
0.032198861 0.10003667 0.040582299
-0.075582869 0.11395833 0.052508101
-0.065517418 0.12321928 0.051913898
-0.022969415 0.16880868 -0.011313
0.045846492 0.12947048 0.036703099
0.04181537 0.10687248 0.0307859
-0.057529818 0.14491218 0.0145842
-0.016826035 0.17449847 -0.00171322
-0.058019485 0.14092241 0.044452202
0.019118644 0.10653024 0.035036702
0.029864695 0.11544889 0.034213498
-0.077749185 0.099062309 0.037769102
-0.048257302 0.1461463 0.0067680501
-0.080216199 0.1077875 0.0154045
0.050233323 0.091652222 -0.00082478102
-0.0042084809 0.18590872 -0.0152046
-0.064113744 0.13968556 0.037362002
0.012779366 0.10631607 0.035172701
-0.025979659 0.16244145 0.00124178
-0.049262825 0.15531938 0.00281642
-0.010458251 0.19160365 -0.018329199
-0.0089074848 0.18477021 -0.018748101
-0.013375892 0.1720418 -0.00845889
-0.023674505 0.1788252 -0.0103739
0.044779886 0.11025829 0.040312
0.016353233 0.11509953 0.035038799
-0.050182607 0.1344198 0.0317044
-0.066916727 0.13712157 0.052399799
-0.037031677 0.13933963 0.033364698
-0.059618767 0.12502503 0.040842101
0.034084801 0.093427598 -0.0118379
0.022274027 0.091760531 0.041675601
-0.054114316 0.14074488 0.0065118498
-0.058913194 0.13675532 0.0071046301
-0.055655565 0.13260174 0.035257701
-0.033236679 0.16457471 -0.0077759498
-0.054670125 0.13361537 0.0304274
0.049698893 0.099609889 0.0141596
-0.039060596 0.14991741 0.0311995
-0.053101942 0.13656946 0.0319505
-0.064761639 0.14133026 0.0368926
-0.049119938 0.13664585 0.0506761
-0.060650349 0.13491006 0.048655499
-0.0654824 0.1293848 0.0478848
-0.08121749 0.11171751 0.0453237
0.038477361 0.092367463 0.0335536
-0.031738881 0.14888762 -0.0041509201
0.031876061 0.10156496 0.031474601
0.0061552445 0.084352709 0.0554698
0.0031797958 0.080452695 0.0550703
0.0098200971 0.086072892 0.054665402
0.019491022 0.094938919 0.054292899
0.01639558 0.091006681 0.053762101
0.017082719 0.090905525 0.0531363
0.0029213983 0.076034091 0.052385099
0.0061381445 0.078441538 0.051797099
0.011730004 0.083174504 0.0512942
0.01658684 0.087247342 0.050684702
0.021137163 0.091048762 0.049996398
0.02930053 0.098336734 0.049516201
-0.048249025 0.12527578 0.036929701
-0.06628903 0.11319067 0.043613698
0.013255795 0.079177096 0.049039301
0.024162065 0.089079566 0.048707802
0.018509144 0.082489341 0.0483132
0.025484195 0.088556394 0.047910601
0.040841565 0.10308477 0.0473346
0.033405222 0.094853424 0.0467145
0.022157816 0.082858615 0.046020702
0.031303626 0.091314726 0.045246601
0.028777473 0.088106669 0.044432301
0.030594192 0.089135394 0.0438096
0.0302791 0.087972596 0.043292601
0.022480654 0.079213455 0.042974301
0.031362899 0.087063797 0.042750299
0.032052755 0.086842954 0.0423414
0.04760664 0.10162684 0.041690599
0.037954524 0.091295719 0.0408726
0.046276394 0.09896189 0.040029999
0.030194653 0.082232155 0.039177801
0.026832448 0.078237645 0.038321
0.027852286 0.078646488 0.037387799
0.034549396 0.084715493 0.036474701
0.032882739 0.082396641 0.0356781
0.036155805 0.08499901 0.034847502
0.042321309 0.090528108 0.033936001
0.044055346 0.091627747 0.0331324
0.022756258 0.069723159 0.0321991
0.023086572 0.069491275 0.031184699
0.045928109 0.091783702 0.030150799
0.0339632 0.079264894 0.0291034
0.055674225 0.10039043 0.028142
0.035270795 0.079404198 0.0271788
0.00029860574 0.10834223 -0.0201605
0.043878902 0.109109 0.0031759599
0.039470114 0.086238913 -0.0137779
-0.013778265 0.17347844 -0.0076618101
-0.041424941 0.16005535 -0.00702025
0.050592881 0.11827278 0.029035
-0.041573882 0.15666901 -0.0042011002
-0.074952558 0.15930514 0.0092206998
-0.020959131 0.16367427 -0.0011434
0.040535431 0.10213113 0.038718201
-0.062010739 0.10425436 0.033579901
0.048088588 0.10863649 0.0350211
-0.0073328712 0.17894693 -0.0080323797
-0.048060171 0.14982203 0.0078258803
0.045973685 0.11035018 0.035098299
0.028617864 0.092345864 0.0342567
0.0060488377 0.083816141 0.043999501
-0.046107158 0.15158014 0.0118822
-0.062807426 0.13735446 0.0295141
0.025660496 0.085667498 0.0391072
-0.0069874008 0.1875142 -0.0141007
-0.028944071 0.15617383 -0.0125771
-0.060804307 0.11191349 0.036774799
0.044413745 0.11345384 0.030636
0.036657136 0.091477834 0.032325901
0.040421698 0.093060896 -0.0048068799
-0.060022365 0.12086173 0.0345149
-0.056053475 0.14863433 0.047416501
-0.057872299 0.12686591 0.042137101
0.013165202 0.094767295 0.049766801
-0.079929888 0.14552021 0.0222174
0.038593266 0.12151947 0.045384299
-0.037281826 0.15804097 0.0062593799
-0.027840281 0.17665322 0.000195359
-0.024461972 0.17358142 -0.021717999
-0.0074564875 0.17744361 -0.0181213
0.055583581 0.12043508 0.0081652198
-0.070156522 0.12673317 0.051763002
-0.063007981 0.14778951 0.042082299
-0.079740576 0.11058693 0.0501642
-0.068905249 0.14038695 0.033498
0.034451071 0.12091277 0.034652099
-0.034296952 0.14863645 -0.0068461602
-0.076680541 0.12893656 0.052182
-0.071750633 0.10403126 0.037587199
-0.017648697 0.17508601 -0.0236267
0.001012318 0.10247574 -0.031829402
-0.076291412 0.14175519 -0.017913301
0.03541977 0.10473927 0.033671401
-0.067040399 0.1360178 0.036683898
-0.06856586 0.18049143 -0.051082902
-0.027970893 0.15958431 0.00076430099
-0.048668556 0.15625064 -0.0095680198
0.038776126 0.10790423 0.0101653
-0.022926802 0.180803 -0.0086204903
-0.025695352 0.16720925 -0.019376701
-0.031186154 0.16463505 -0.0042308299
-0.020904833 0.17919907 -0.00170672
0.026717415 0.097134314 0.043657798
0.015160066 0.12932928 0.033379499
-0.046299282 0.12902702 0.026522201
-0.068225704 0.12597109 0.043711498
-0.07549455 0.11807546 0.042832401
-0.067853495 0.11762451 0.041366801
-0.071944803 0.11435159 0.0419374
-0.063213311 0.12383499 0.042614002
-0.064703926 0.12298767 0.0434733
-0.071842916 0.13892739 0.036320999
0.044360213 0.088915214 -0.0097820703
-0.022869298 0.1715887 -0.0113487
-0.019523399 0.1705308 -0.0137262
-0.045173123 0.14773838 0.0064406199
0.042457655 0.097501852 0.0111628
-0.058717582 0.12095401 0.038974199
-0.018772168 0.18483302 -0.018449301
-0.078377381 0.12700142 0.041893002
-0.042324949 0.16061205 0.0153954
-0.023873396 0.17055741 -0.016720399
-0.063048959 0.13050443 0.046212699
0.035012897 0.10335349 0.029864799
-0.050479323 0.14520998 0.032605801
0.044524156 0.11016756 0.019171599
0.0040452024 0.082828119 0.054787401
0.0068843164 0.084865212 0.0544498
0.023878688 0.10074819 0.054158099
0.019235382 0.095228784 0.053700801
0.017837675 0.093007274 0.053142101
0.005816055 0.080292754 0.0523539
0.02054147 0.094174273 0.051834598
0.007197367 0.079983965 0.051310599
0.011532411 0.083565816 0.050636001
0.024372675 0.095724277 0.049812201
0.0091793668 0.079836264 0.049114101
-0.0839708 0.11870349 0.044970199
-0.059254881 0.11243832 0.036097601
-0.050106913 0.12156389 0.029110501
0.020784175 0.087115973 0.0485585
0.027281597 0.092725195 0.048143499
0.026771007 0.091325507 0.047680501
0.033465277 0.097157575 0.047161501
0.024377335 0.087301642 0.046498001
0.026757285 0.088929683 0.045813199
0.027562292 0.089014292 0.045076899
0.029869707 0.090574212 0.044393498
0.035193108 0.095127411 0.043761
0.031407353 0.090436354 0.043338601
0.02166554 0.079692237 0.043094099
0.019268431 0.076279432 0.042819001
0.025749156 0.081930652 0.042270798
0.046726365 0.10214736 0.041602898
0.034459259 0.089170866 0.0408509
0.036298946 0.090346344 0.040012699
0.028230231 0.081589229 0.039244398
0.0378993 0.090619296 0.038339201
0.029701421 0.081805319 0.037462998
0.054115444 0.10562015 0.0365275
0.026860703 0.077731699 0.0356698
0.017606581 0.067830279 0.034819901
0.045820329 0.095444232 0.033883601
0.032903958 0.081933461 0.032944102
0.046801031 0.095247425 0.031940699
0.028943857 0.076824151 0.030980701
0.040935993 0.088276394 0.029933101
0.042734817 0.089518018 0.028890699
0.04538966 0.091617055 0.027912
0.035307441 0.080967337 0.026874
-0.060131405 0.1370486 0.027424799
-0.053630397 0.1506913 0.0069086798
0.036919262 0.084827863 0.0081668701
-0.076543957 0.15291505 -0.00188508
-0.063488528 0.13099766 0.049970198
-0.027543796 0.1660701 -0.0132085
0.035567824 0.10110233 0.043418199
0.029599652 0.088570751 0.030266
-0.060583815 0.14944819 0.034186602
0.031285048 0.094367146 0.040088601
-0.026007071 0.17708203 -0.0108375
-0.021244299 0.18059841 -0.0138785
0.04098193 0.090785526 -0.0078040902
0.042182151 0.095890947 -0.00279849
0.045178022 0.10763192 0.032522898
0.019012168 0.097598068 0.0445472
0.01970887 0.099178769 0.0450693
-0.06342566 0.15992413 -0.033593301
-0.060982682 0.17610362 -0.0485643
-0.082699969 0.15303063 -0.0120318
-0.019731965 0.17389953 -0.0146234
-0.017865559 0.15956335 -0.017085699
-0.074696802 0.1561766 -0.0029027101
-0.056793638 0.15143818 0.0362061
-0.020190097 0.16454051 -0.00287357
0.053301588 0.10556088 0.030456699
0.04335044 0.091096133 0.0271644
-0.049755078 0.13188952 0.035175499
-0.081716888 0.13148041 0.0262942
-0.062958337 0.12252577 0.042823199
-0.037798654 0.16546744 -0.00164334
-0.0088721486 0.11075445 -0.021742599
-0.051679034 0.14403068 0.0093855197
-0.04879576 0.12289044 0.035073102
-0.043407507 0.1296861 0.036612201
0.046708155 0.091961458 -0.0037918999
-0.05106334 0.14262876 0.0050428999
0.0050900895 0.11268388 0.0361473
0.0055282619 0.11413326 0.036469001
-0.053228196 0.13190641 0.049809001
-0.069626912 0.13731319 0.0374116
0.0029330412 0.11073117 -0.022230901
0.063652866 0.11149176 0.0071700402
0.017900812 0.11497992 0.032390501
-0.082739793 0.10668041 0.0064260899
-0.068630666 0.14178184 -0.0068149501
-0.05478511 0.128924 0.040435702
-0.095429607 0.11903999 0.0272936
-0.081543297 0.13771471 0.030259499
-0.014710138 0.12523787 -0.0155729
-0.089430615 0.14801909 -0.0179219
-0.070949495 0.13133931 0.0360828
-0.02220791 0.17856449 -0.0091307899
-0.031155687 0.1555555 0.00021584801
-0.060431633 0.13459988 0.039434001
-0.01666382 0.18647029 -0.0095733497
-0.054267392 0.15556562 0.043198299
-0.038111459 0.15856783 -0.00376818
-0.04863812 0.15027298 0.00401656
-0.011473509 0.18193789 -0.0228495
-0.023893472 0.17992373 -0.0155995
-0.052340779 0.15074682 0.0107879
-0.025485609 0.16450478 -0.0122385
-0.073202401 0.1414866 0.0362834
-0.023542296 0.1752862 -0.0253576
0.0055392762 0.11835366 -0.022783
-0.061271105 0.1252197 0.0357618
-0.064831302 0.12346531 0.044418398
-0.066903152 0.12195835 0.045406301
-0.066813983 0.12322821 0.047274999
0.05358104 0.10161704 0.0051759202
-0.064645842 0.16185616 -0.056600299
-0.0442397 0.146963 0.0113921
-0.06304872 0.060017779 0.0248018
0.0063265357 0.18785943 -0.024754399
-0.059400834 0.069686368 0.0301523
-0.055990528 0.13508378 0.0103932
0.026163921 0.072886817 0.015163
0.042037599 0.086989999 0.0041722399
-0.061573077 0.14725742 0.050182801
-0.063129149 0.13105696 0.047086202
-0.056476641 0.11154725 0.0300033
-0.061037354 0.12039234 0.044154
-0.049192123 0.13081847 0.0355005
0.020574655 0.10092865 0.043908801
0.010560762 0.088949464 0.053842802
0.0090461019 0.086557098 0.0534187
0.023915701 0.1005956 0.052885801
0.016236149 0.09211465 0.0522594
0.0079142516 0.082918853 0.051789898
0.021017965 0.095173962 0.051282801
0.026431678 0.099842079 0.050587401
0.010116673 0.082879975 0.0497289
0.022566732 0.094697334 0.048881002
-0.04419877 0.14936253 0.0071714101
-0.060793184 0.11010072 0.035475701
-0.060356665 0.11220814 0.036581598
-0.06846334 0.15701145 -0.0335899
0.025430277 0.092348173 0.0479207
0.041537639 0.10756504 0.047481101
0.030675657 0.095825762 0.046982098
0.031036686 0.095383488 0.0463733
0.036735073 0.10035037 0.045658499
0.041773189 0.10461009 0.0450202
0.011493213 0.073585518 0.044327602
0.032789987 0.094043292 0.043809202
0.035971295 0.096306793 0.043409701
0.037880722 0.09728232 0.043075699
0.038896367 0.097368561 0.042641699
0.019567771 0.077187367 0.042104602
0.035215225 0.09209203 0.041424502
0.02196409 0.078107089 0.040717799
0.024358457 0.079822361 0.039905898
0.052940078 0.10768558 0.039160699
0.036459483 0.090559281 0.038309101
0.03160755 0.085084952 0.037439998
0.039536163 0.092400759 0.036513999
0.044622604 0.096850507 0.035657398
0.048420023 0.10003012 0.034735199
0.043156147 0.094185948 0.033841301
0.045937147 0.096384846 0.032836899
0.036893357 0.086810157 0.031805702
0.044441435 0.09381374 0.030766601
0.045017213 0.093811311 0.029735999
0.034016192 0.08224199 0.028765099
0.037066124 0.084741823 0.0277847
0.035267383 0.11098789 0.028644999
-0.073782377 0.15225722 -0.0078912396
-0.041393284 0.14856812 0.00145329
0.015024109 0.091700815 0.0480767
0.015317812 0.092767909 0.0486896
0.013175301 0.091337405 0.049426101
0.0051693865 0.084093392 0.0500689
0.030704562 0.095416561 0.0428642
-0.023095364 0.16317423 -0.0210892
-0.026254041 0.16183135 0.00091038598
0.024019253 0.086337954 0.039433599
-0.046148885 0.15343341 0.0088552404
0.034352303 0.10938831 0.0278542
-0.01144496 0.18910834 -0.0169471
-0.04322524 0.13261676 0.027528901
0.045093101 0.1068957 0.031674299
0.027592989 0.097916692 0.038981698
-0.090481065 0.10858683 0.0032814899
-0.06624072 0.14169748 0.0497506
-0.05295787 0.15550172 0.041623201
-0.015887322 0.17690398 -0.0151523
-0.10060073 0.096717775 0.00936714
-0.092735872 0.11981693 0.0153042
-0.05512131 0.14792049 0.027540799
0.023015618 0.080746219 0.038711298
-0.046916354 0.15117164 0.048783202
-0.017272132 0.17800596 -0.0093826596
-0.052695867 0.12747103 0.033783998
-0.061738305 0.12998849 0.0468559
-0.061368443 0.12254875 0.041569602
-0.070236892 0.11998141 0.051807299
-0.062146105 0.1041402 0.0305757
-0.025563434 0.17743257 -0.0193264
-0.06140035 0.11100444 0.0357708
-0.044748988 0.15604152 -0.0077874199
0.018658554 0.089731455 0.041290499
-0.079546787 0.17479731 -0.054017801
0.039345525 0.12041412 0.0301021
-0.048311554 0.15922375 0.0307055
-0.051118225 0.15587378 0.029715899
-0.016607007 0.1795657 -0.0116584
-0.066559538 0.13082466 0.048032101
0.027252069 0.11553527 0.0354614
-0.064905077 0.13028432 0.0522171
-0.064435348 0.13472284 -0.0090499902
-0.073798224 0.12436878 -0.0091385804
-0.01867207 0.16972563 -0.016201699
-0.045414083 0.14093402 0.037484899
-0.08776699 0.12065631 -0.0027014001
-0.015308811 0.084146895 -0.033828899
-0.092831604 0.1217772 0.035281099
-0.051569112 0.14999868 0.0353291
-0.049590643 0.14203855 0.00283923
-0.028355369 0.15750492 -0.00027081699
0.041977987 0.11754569 -0.000827134
-0.045025259 0.15572804 0.0304155
-0.013650209 0.17849419 -0.020033499
-0.02255537 0.17988802 -0.0143459
-0.045695852 0.15905656 0.0039411499
-0.039051112 0.15800598 0.0046578902
-0.024122803 0.16351819 -0.0182312
0.047741339 0.10077714 0.0241636
-0.063507788 0.14792392 0.044458199
-0.063815974 0.13830942 0.034863301
0.03765621 0.083611608 -0.0147697
-0.061188444 0.15343446 -0.027587499
-0.028145058 0.15009455 0.024504701
-0.08661329 0.11501571 0.0143387
-0.0035511171 0.18637148 -0.0267921
-0.067799062 0.11155574 0.0369385
-0.070959039 0.11973226 0.048098002
-0.068444379 0.12098332 0.046383299
0.015908362 0.097616263 0.030961899
-0.076753683 0.11108772 0.0124123
0.056798328 0.12022003 0.036348101
0.066415437 0.11361653 0.020160399
0.044174511 0.087926708 -0.00778247
0.034730721 0.075149328 0.0121678
0.03945291 0.083881713 -0.0017989899
-0.060187336 0.12241247 0.0482345
0.038971871 0.095354065 0.0370772
-0.049394246 0.14932416 0.051156402
-0.043963689 0.1246089 0.0310062
-0.040938277 0.12645762 0.0291692
-0.025656903 0.1728884 -0.011167
0.0148151 0.1222263 0.034981601
0.0047954675 0.11320647 0.035232302
0.021078028 0.099348232 0.0524895
0.0045757922 0.081964992 0.0520062
0.017255066 0.09372136 0.051589999
0.033081532 0.10871603 0.051067699
0.022701344 0.097590849 0.050368302
0.011322916 0.085596621 0.0494605
0.0098295752 0.083490074 0.048558298
0.019112268 0.092010565 0.047918499
-0.086859703 0.14322209 0.033177599
-0.064980574 0.10509823 0.034903701
-0.019560026 0.16091727 -0.0190633
0.010285259 0.078674257 0.047720701
0.03238292 0.099882819 0.047268599
0.030738866 0.097363569 0.046775099
0.026219998 0.092026301 0.046194699
0.029580126 0.094574831 0.045609701
0.041313387 0.10554959 0.044941802
0.028005844 0.09144824 0.044335701
0.031133836 0.093727738 0.043817699
0.0088190967 0.070564397 0.043310899
0.030232547 0.091106944 0.042821702
0.017854111 0.077854313 0.042337298
0.044075858 0.10325026 0.041789498
0.0096809641 0.06804426 0.041193102
0.04983918 0.10748448 0.0404552
0.047369637 0.10429944 0.039713301
0.027418513 0.083634116 0.038964301
0.036327612 0.091897011 0.038111601
0.033675499 0.088572904 0.037324399
0.04420203 0.098463327 0.036420301
0.049433291 0.10306919 0.035553001
0.034153935 0.087175541 0.034630898
0.040922705 0.093358405 0.033684801
0.042482305 0.094378501 0.032708399
0.040455364 0.091820061 0.031554699
0.034123123 0.084920421 0.030650999
0.020042501 0.070253 0.0296287
0.038773824 0.088409126 0.028661599
0.040364802 0.089451306 0.0276147
-0.056651268 0.14564642 0.0115744
0.028241379 0.10946888 0.0459866
-0.048395865 0.12850444 0.029602
-0.06050235 0.14754035 0.038973201
-0.064481042 0.14773707 -0.0215452
-0.05694671 0.14040248 0.0307629
-0.084941968 0.11801343 0.050785799
0.036394373 0.10028937 0.042282298
-0.014534369 0.17565213 -0.016673001
0.041529987 0.096837685 0.0151565
0.05085839 0.096907891 -0.00180307
-0.023138555 0.18314104 -0.00803266
-0.056181479 0.11406282 0.033604201
-0.065397888 0.13771851 0.0121451
-0.053713113 0.15041089 0.029652201
0.046940498 0.1081391 0.030741099
0.023198796 0.094280995 0.039660402
0.032975778 0.10163668 0.032842599
-0.050847169 0.14710784 0.0233765
-0.04536983 0.12414128 0.032871801
-0.025430098 0.1664743 -0.015629301
-0.064493112 0.12729798 0.0515729
0.023886422 0.073790424 -0.0108207
-0.051803 0.128056 0.037206601
0.026477329 0.084313326 0.028275101
-0.062345214 0.10622059 0.026245
-0.033988636 0.15530476 -0.0157212
-0.05020747 0.12853234 0.0323161
-0.075550474 0.11680443 0.0477296
-0.062534176 0.11960392 0.040661599
-0.056884442 0.13409686 0.052447401
-0.07621488 0.10683352 0.0044419002
-0.052562807 0.12659289 0.040479701
-0.062653244 0.10833166 0.034302998
-0.056791279 0.15188032 0.032637499
-0.067461252 0.17412336 -0.023933601
-0.062480867 0.13552393 0.0301615
0.028969411 0.094400018 0.041969799
-0.069814689 0.14028631 0.041314699
0.0121684 0.092516996 0.045526199
-0.076161705 0.12268289 0.049450099
-0.066715375 0.13288711 0.0501143
0.031570259 0.12079515 0.035813801
0.018691497 0.1088706 0.036223199
-0.058723297 0.1380987 0.0282888
-0.033623073 0.15827784 -0.0142383
0.039652199 0.098301604 -0.0088045103
0.040533885 0.10484158 -0.00078968197
-0.095941268 0.12629622 0.0122381
-0.029468259 0.17432864 -0.0060079698
-0.033900693 0.096734099 -0.0233484
-0.066945754 0.13403875 0.034370001
-0.041684482 0.15003362 0.0041289199
-0.028309738 0.15197076 -0.0057292799
-0.016359003 0.16347159 -0.00651614
-0.021159891 0.15447761 -0.0150087
0.0029247554 0.19427665 -0.0206609
0.028751621 0.099925525 0.0459654
-0.045840904 0.1757547 -0.0335919
-0.025119882 0.16255651 0.00099412503
-0.02737895 0.16118404 0.0014598001
0.037483193 0.097040594 0.0312187
-0.0054540676 0.17630504 -0.0205524
-0.054759677 0.16699593 -0.035592001
-0.055497233 0.14611386 0.033627499
-0.046647862 0.15437554 0.032841701
0.033198204 0.097857505 0.041341301
-0.052676603 0.1260708 0.025586501
-0.061887201 0.12965479 0.038954198
-0.064990439 0.13164285 0.043986801
-0.056872327 0.14303687 0.035239302
-0.082169898 0.12068091 -0.00570472
-0.030809741 0.088032953 -0.030581599
0.034033675 0.087399371 -0.0067699198
-0.059683301 0.1196454 -0.0101675
-0.096911184 0.099416815 0.0213654
0.014589402 0.084936 0.0454222
0.027186345 0.096721746 0.044812702
-0.054444298 0.1431278 -0.0032884399
-0.057692964 0.10199753 -0.017923599
-0.0037867858 0.10739821 0.034910701
0.044392884 0.09402708 0.0241585
-0.067890264 0.11270004 0.045759201
0.012415688 0.12264729 0.034525301
0.0096744429 0.12181866 0.0352946
-0.060663842 0.14494295 0.037246998
-0.052611046 0.082959056 -0.0225845
-0.068647295 0.098264508 -0.0154446
-0.064515017 0.10050438 -0.016164299
-0.094295181 0.11575462 0.034305599
-0.08048816 0.14561874 -0.0108814
0.01283227 0.19157857 -0.024751401
-0.067243822 0.15425228 -0.032589499
-0.06434831 0.1045 -0.0145557
-0.08454784 0.099099062 -0.0083155204
-0.059480008 0.11354809 -0.0141961
-0.07388851 0.11785049 -0.0050502298
-0.053894695 0.085611209 -0.022164101
-0.077162988 0.14597642 -0.019559501
-0.024274876 0.15191573 -0.011803
-0.08325699 0.14197341 0.00220396
-0.060102105 0.15625919 -0.032599099
0.023458252 0.038221251 -0.00168489
0.017310025 0.032076724 -0.0026817
0.022277448 0.037498046 -0.0036828499
0.023857014 0.039418716 -0.0046782899
0.019056888 0.035073787 -0.00567711
0.0099035734 0.026377672 -0.0066782502
0.023657339 0.040134642 -0.00767677
0.013934679 0.030636981 -0.0086734798
0.024982475 0.041915674 -0.0096744904
0.031709604 0.048869103 -0.0106716
0.030274563 0.047551364 -0.0116753
0.015826674 0.033331372 -0.0126728
0.034471139 0.051865343 -0.0136744
0.020805528 0.038638428 -0.014686
0.022734335 0.041443635 -0.0156588
0.013713074 0.032610875 -0.0166384
-0.05989071 0.10411889 -0.016265601
0.015548665 0.032773767 0.040219899
0.01374305 0.03040535 0.039246
0.01171476 0.027862359 0.038251799
0.013741883 0.029545782 0.037260801
0.023773219 0.039242119 0.036270201
0.036947489 0.052089989 0.0352799
0.027267748 0.042229746 0.034288999
0.032138817 0.046727818 0.0332895
-0.070740439 0.09715566 -0.0149677
